VERSION 0.7
FIELDS x y z
SIZE 4 4 4
TYPE F F F
COUNT 1 1 1
WIDTH 1875
HEIGHT 1
VIEWPOINT 0 0 0 1 0 0 0
POINTS 1875
DATA ascii
-1.30681 2.41944 -9.326
-1.32754 2.41944 -9.326
-1.34149 2.40728 -9.27913
-1.36212 2.40728 -9.27913
-1.37583 2.39525 -9.23274
-1.3894 2.38333 -9.1868
-1.40982 2.38333 -9.1868
-1.42315 2.37153 -9.14132
-1.45791 2.39525 -9.23274
-1.47351 2.38729 -9.20206
-1.53232 2.38333 -9.1868
-1.55274 2.38333 -9.1868
-1.55002 2.34828 -9.0517
-1.58569 2.37153 -9.14132
-1.606 2.37153 -9.14132
-1.62632 2.37153 -9.14132
-1.64664 2.37153 -9.14132
-1.65874 2.35985 -9.09629
-1.67896 2.35985 -9.09629
-1.69085 2.34828 -9.0517
-1.70262 2.33683 -9.00755
-1.72264 2.33683 -9.00755
-1.7512 2.34828 -9.0517
-1.81389 2.32548 -8.96382
-1.82495 2.31425 -8.92052
-1.84478 2.31425 -8.92052
-1.89972 2.33303 -8.99292
-2.15852 2.31053 -8.90618
-2.18534 2.31798 -8.93491
-2.26524 2.35985 -9.09629
-2.28546 2.35985 -9.09629
-2.29437 2.34828 -9.0517
-2.29202 2.32548 -8.96382
-2.33461 2.34828 -9.0517
-2.34706 2.34063 -9.02222
-2.56428 2.35598 -9.08138
-2.65649 2.34828 -9.0517
0.708013 5.48014 -21.3063
0.660659 5.48014 -21.3063
-1.00916 2.48229 -9.65094
-1.00864 2.42939 -9.44525
-1.06424 2.46086 -9.5676
-1.10106 2.44817 -9.51828
-1.14337 2.44817 -9.51828
-1.17358 2.42319 -9.42116
-1.19452 2.42319 -9.42116
-1.20929 2.41089 -9.37334
-1.23012 2.41089 -9.37334
-1.32754 2.39871 -9.326
-1.34149 2.38666 -9.27913
-1.36212 2.38666 -9.27913
-1.37583 2.37473 -9.23274
-1.42315 2.35122 -9.14132
-1.45791 2.37473 -9.23274
-1.47351 2.36684 -9.20206
-1.49397 2.36684 -9.20206
-1.50442 2.35122 -9.14132
-1.51723 2.33963 -9.09629
-1.53744 2.33963 -9.09629
-1.55002 2.32816 -9.0517
-1.57014 2.32816 -9.0517
-1.59809 2.33963 -9.09629
-1.61038 2.32816 -9.0517
-1.63853 2.33963 -9.09629
-1.67987 2.31305 -8.99292
-1.69435 2.30556 -8.96382
-1.82274 2.31681 -9.00755
-1.85564 2.28339 -8.87763
-1.91214 2.32816 -9.0517
-1.92283 2.31681 -9.00755
-1.94285 2.31681 -9.00755
-1.95334 2.30556 -8.96382
-1.97326 2.30556 -8.96382
-2.00338 2.29442 -8.92052
-2.02321 2.29442 -8.92052
-2.04304 2.29442 -8.92052
-2.06286 2.29442 -8.92052
-2.11272 2.30556 -8.96382
-2.13264 2.30556 -8.96382
-2.13872 2.29073 -8.90618
-2.15852 2.29073 -8.90618
-2.18534 2.29812 -8.93491
-2.26524 2.33963 -9.09629
-2.28546 2.33963 -9.09629
-2.29437 2.32816 -9.0517
-2.29202 2.30556 -8.96382
-2.33461 2.32816 -9.0517
-2.34706 2.32058 -9.02222
-2.36711 2.32058 -9.02222
-2.39496 2.32816 -9.0517
-2.42698 2.33963 -9.09629
-2.44719 2.33963 -9.09629
-2.46741 2.33963 -9.09629
-2.47543 2.32816 -9.0517
-2.49555 2.32816 -9.0517
-2.51567 2.32816 -9.0517
-2.56849 2.33963 -9.09629
-2.58871 2.33963 -9.09629
-2.60893 2.33963 -9.09629
-2.61625 2.32816 -9.0517
-2.63637 2.32816 -9.0517
-2.66958 2.33963 -9.09629
-2.66355 2.31681 -9.00755
-2.68357 2.31681 -9.00755
-2.74374 2.35122 -9.14132
-2.76406 2.35122 -9.14132
-2.77066 2.33963 -9.09629
-2.79088 2.33963 -9.09629
-11.083 5.48014 -21.3063
-11.1304 5.48014 -21.3063
6.82597 5.93498 -23.2758
6.77424 5.93498 -23.2758
0.697285 5.35047 -20.9835
0.604013 5.35047 -20.9835
-0.977155 2.54509 -9.98134
-1.02171 2.43959 -9.5676
-1.05875 2.42702 -9.51828
-1.0799 2.42702 -9.51828
-1.14337 2.42702 -9.51828
-1.16452 2.42702 -9.51828
-1.19452 2.40225 -9.42116
-1.20929 2.39006 -9.37334
-1.23012 2.39006 -9.37334
-1.24463 2.37799 -9.326
-1.33654 2.39411 -9.38922
-1.22296 2.09263 -8.20688
-1.32417 2.20019 -8.62873
-1.46523 2.36604 -9.27913
-1.61038 2.30805 -9.0517
-1.63853 2.31942 -9.09629
-1.67987 2.29306 -8.99292
-1.69435 2.28564 -8.96382
-1.7512 2.30805 -9.0517
-1.78004 2.31942 -9.09629
-1.80026 2.31942 -9.09629
-1.82048 2.31942 -9.09629
-1.83167 2.30805 -9.0517
-1.83381 2.28564 -8.96382
-1.8646 2.2746 -8.92052
-1.91214 2.30805 -9.0517
-1.90425 2.2746 -8.92052
-1.92408 2.2746 -8.92052
-1.93456 2.26366 -8.87763
-1.97326 2.28564 -8.96382
-1.99966 2.29306 -8.99292
-2.4882 2.82505 -11.0793
-2.51283 2.82505 -11.0793
-2.07308 2.30805 -9.0517
-2.24314 2.29679 -9.00755
-2.26316 2.29679 -9.00755
-2.32322 2.29679 -9.00755
-2.34324 2.29679 -9.00755
-2.36326 2.29679 -9.00755
-2.42698 2.31942 -9.09629
-2.42332 2.29679 -9.00755
-2.44334 2.29679 -9.00755
-2.51567 2.30805 -9.0517
-2.53578 2.30805 -9.0517
-2.61078 2.28564 -8.96382
-2.70311 2.3309 -9.14132
-2.72342 2.3309 -9.14132
-11.083 5.43279 -21.3063
6.77424 5.88325 -23.2758
3.85436 5.62334 -22.2476
3.80491 5.62334 -22.2476
3.71076 5.5564 -21.9827
-1.00565 2.43092 -9.61743
-1.02703 2.43092 -9.61743
-1.05875 2.40586 -9.51828
-1.0799 2.40586 -9.51828
-1.10106 2.40586 -9.51828
-1.14337 2.40586 -9.51828
-1.16452 2.40586 -9.51828
-1.27178 2.36923 -9.37334
-1.30587 2.39353 -9.46947
-1.32692 2.39353 -9.46947
-1.35511 2.36923 -9.37334
-1.37595 2.36923 -9.37334
-1.32417 2.18102 -8.62873
-1.4519 2.35726 -9.326
-1.51947 2.33369 -9.23274
-1.53999 2.33369 -9.23274
-1.56051 2.33369 -9.23274
-1.58569 2.31058 -9.14132
-1.62632 2.31058 -9.14132
-1.69085 2.28793 -9.0517
-1.71096 2.28793 -9.0517
-1.73108 2.28793 -9.0517
-1.7827 2.27677 -9.00755
-1.80272 2.27677 -9.00755
-1.81389 2.26572 -8.96382
-1.95334 2.26572 -8.96382
-1.97326 2.26572 -8.96382
-1.99319 2.26572 -8.96382
-2.05295 2.26572 -8.96382
-2.12373 2.2992 -9.09629
-2.14394 2.2992 -9.09629
-2.30568 2.2992 -9.09629
-2.32589 2.2992 -9.09629
-2.33461 2.28793 -9.0517
-2.35473 2.28793 -9.0517
-2.39496 2.28793 -9.0517
-2.423 2.29543 -9.08138
-2.44719 2.2992 -9.09629
-2.46741 2.2992 -9.09629
-2.47543 2.28793 -9.0517
-2.49555 2.28793 -9.0517
-2.51567 2.28793 -9.0517
-2.53578 2.28793 -9.0517
-2.56849 2.2992 -9.09629
-2.62483 2.29543 -9.08138
-2.64502 2.29543 -9.08138
-2.65649 2.28793 -9.0517
-2.67661 2.28793 -9.0517
-2.73023 2.2992 -9.09629
-2.76406 2.31058 -9.14132
-2.77066 2.2992 -9.09629
-2.79088 2.2992 -9.09629
-2.79731 2.28793 -9.0517
-7.53366 5.12898 -20.2917
-7.75915 5.12898 -20.2917
-7.80425 5.12898 -20.2917
-6.05331 3.9554 -15.6487
-10.7925 5.24424 -20.7477
-10.8386 5.24424 -20.7477
0.761222 5.37946 -21.4715
-1.01644 2.38471 -9.51828
-1.14337 2.38471 -9.51828
-1.15855 2.37248 -9.46947
-1.1796 2.37248 -9.46947
-1.23639 2.36038 -9.42116
-1.30681 2.33653 -9.326
-1.32754 2.33653 -9.326
-1.34827 2.33653 -9.326
-1.37583 2.31317 -9.23274
-1.42399 2.32479 -9.27913
-1.51947 2.31317 -9.23274
-1.53999 2.31317 -9.23274
-1.58569 2.29027 -9.14132
-1.64664 2.29027 -9.14132
-1.66695 2.29027 -9.14132
-1.69085 2.26781 -9.0517
-1.71096 2.26781 -9.0517
-1.73108 2.26781 -9.0517
-1.7512 2.26781 -9.0517
-1.77132 2.26781 -9.0517
-1.7827 2.25675 -9.00755
-1.80272 2.25675 -9.00755
-1.81389 2.24579 -8.96382
-1.92283 2.25675 -9.00755
-1.94285 2.25675 -9.00755
-1.95334 2.24579 -8.96382
-1.97326 2.24579 -8.96382
-2.00338 2.23494 -8.92052
-2.02321 2.23494 -8.92052
-2.0932 2.26781 -9.0517
-2.10301 2.25675 -9.00755
-2.12303 2.25675 -9.00755
-2.13264 2.24579 -8.96382
-2.15256 2.24579 -8.96382
-2.18308 2.25675 -9.00755
-2.21951 2.25309 -8.99292
-2.25414 2.26781 -9.0517
-2.28546 2.27898 -9.09629
-2.31449 2.26781 -9.0517
-2.39836 2.29027 -9.14132
-2.49555 2.26781 -9.0517
-2.51567 2.26781 -9.0517
-2.53578 2.26781 -9.0517
-2.56849 2.27898 -9.09629
-2.64502 2.27525 -9.08138
-2.65649 2.26781 -9.0517
-2.67661 2.26781 -9.0517
-2.76612 2.27525 -9.08138
-2.7863 2.27525 -9.08138
-7.48057 5.14037 -20.5172
-7.46123 5.06533 -20.2177
-7.45177 5.02863 -20.0712
-7.4599 4.97455 -19.8553
-7.50403 4.97455 -19.8553
-7.75915 5.08388 -20.2917
-7.80425 5.08388 -20.2917
-6.05331 3.92062 -15.6487
-11.0406 5.31763 -21.2247
-11.0877 5.31763 -21.2247
6.85477 5.80417 -23.374
6.80282 5.80417 -23.374
4.10156 5.59182 -22.5189
3.9989 5.73162 -23.0818
0.761222 5.33174 -21.4715
-0.95144 2.41331 -9.71867
-0.97304 2.41331 -9.71867
-1.01644 2.36355 -9.51828
-1.0799 2.36355 -9.51828
-1.10106 2.36355 -9.51828
-1.11646 2.35143 -9.46947
-1.14337 2.36355 -9.51828
-1.15855 2.35143 -9.46947
-1.1796 2.35143 -9.46947
-1.19452 2.33944 -9.42116
-1.21546 2.33944 -9.42116
-1.23639 2.33944 -9.42116
-1.26536 2.31581 -9.326
-1.34827 2.31581 -9.326
-1.369 2.31581 -9.326
-1.47263 2.31581 -9.326
-1.51191 2.28124 -9.1868
-1.53999 2.29265 -9.23274
-1.61399 2.28124 -9.1868
-1.63441 2.28124 -9.1868
-1.64664 2.26995 -9.14132
-1.66695 2.26995 -9.14132
-1.67896 2.25877 -9.09629
-1.69918 2.25877 -9.09629
-1.7512 2.24769 -9.0517
-1.77132 2.24769 -9.0517
-1.7827 2.23673 -9.00755
-1.80272 2.23673 -9.00755
-1.81389 2.22587 -8.96382
-1.85373 2.22587 -8.96382
-1.87974 2.2331 -8.99292
-1.92283 2.23673 -9.00755
-1.94285 2.23673 -9.00755
-1.95334 2.22587 -8.96382
-1.97326 2.22587 -8.96382
-2.00338 2.21512 -8.92052
-2.02321 2.21512 -8.92052
-2.0932 2.24769 -9.0517
-2.28546 2.25877 -9.09629
-2.33461 2.24769 -9.0517
-2.37804 2.26995 -9.14132
-2.37484 2.24769 -9.0517
-2.39496 2.24769 -9.0517
-2.45931 2.26995 -9.14132
-2.5441 2.25506 -9.08138
-2.62914 2.25877 -9.09629
-2.64936 2.25877 -9.09629
-2.66958 2.25877 -9.09629
-2.73697 2.28124 -9.1868
-2.75739 2.28124 -9.1868
-2.76406 2.26995 -9.14132
-2.7863 2.25506 -9.08138
-7.56462 5.15202 -20.7477
-7.4163 5.0204 -20.2177
-7.46123 5.0204 -20.2177
-7.45177 4.98402 -20.0712
-7.4599 4.93043 -19.8553
-7.50403 4.93043 -19.8553
-7.84537 5.09477 -20.5172
-10.7925 5.15202 -20.7477
-10.8386 5.15202 -20.7477
7.05557 5.87619 -23.8778
7.0025 5.87619 -23.8778
4.10156 5.54178 -22.5189
-0.97304 2.39171 -9.71867
-1.00565 2.3668 -9.61743
-1.06889 2.3185 -9.42116
-1.10106 2.3424 -9.51828
-1.1317 2.3185 -9.42116
-1.19452 2.3185 -9.42116
-1.21546 2.3185 -9.42116
-1.23639 2.3185 -9.42116
-1.26536 2.29508 -9.326
-1.32754 2.29508 -9.326
-1.35282 2.30283 -9.3575
-1.39678 2.30673 -9.37334
-1.41761 2.30673 -9.37334
-1.32417 2.12348 -8.62873
-1.47263 2.29508 -9.326
-1.60154 2.27213 -9.23274
-1.62206 2.27213 -9.23274
-1.64664 2.24963 -9.14132
-1.66695 2.24963 -9.14132
-1.68727 2.24963 -9.14132
-1.77132 2.22758 -9.0517
-1.77404 2.20595 -8.96382
-1.79396 2.20595 -8.96382
-1.89202 2.22758 -9.0517
-1.93456 2.18474 -8.87763
-1.97326 2.20595 -8.96382
-2.00291 2.21671 -9.00755
-2.00338 2.19529 -8.92052
-2.02321 2.19529 -8.92052
-2.12722 2.24223 -9.11125
-2.14747 2.24223 -9.11125
-2.16416 2.23855 -9.09629
-2.18438 2.23855 -9.09629
-2.20459 2.23855 -9.09629
-2.28399 2.25708 -9.17159
-2.29677 2.24963 -9.14132
-2.31709 2.24963 -9.14132
-2.33741 2.24963 -9.14132
-2.35473 2.22758 -9.0517
-2.41508 2.22758 -9.0517
-2.49555 2.22758 -9.0517
-2.51932 2.21311 -8.99292
-2.59405 2.26082 -9.1868
-2.62914 2.23855 -9.09629
-2.64936 2.23855 -9.09629
-2.66958 2.23855 -9.09629
-2.73697 2.26082 -9.1868
-2.75739 2.26082 -9.1868
-2.76406 2.24963 -9.14132
-7.61737 5.04917 -20.5172
-7.66297 5.04917 -20.5172
-7.70857 5.04917 -20.5172
-7.5856 4.93941 -20.0712
-7.79977 5.04917 -20.5172
-7.84537 5.04917 -20.5172
-7.84935 4.99369 -20.2917
-7.98217 5.04917 -20.5172
7.0025 5.82312 -23.8778
3.85733 5.36097 -21.9827
3.90136 5.49173 -22.5189
0.650649 5.11729 -20.9835
-0.97304 2.37011 -9.71867
-0.989433 2.3577 -9.66779
-1.01092 2.3577 -9.66779
-1.02703 2.34542 -9.61743
-1.04297 2.33327 -9.5676
-1.06424 2.33327 -9.5676
-1.0799 2.32125 -9.51828
-1.10106 2.32125 -9.51828
-1.14337 2.32125 -9.51828
-1.15855 2.30934 -9.46947
-1.22606 2.24041 -9.1868
-1.24647 2.24041 -9.1868
-1.33479 2.25161 -9.23274
-1.39006 2.30934 -9.46947
-1.41687 2.25161 -9.23274
-1.5271 2.26292 -9.27913
-1.54772 2.26292 -9.27913
-1.56051 2.25161 -9.23274
-1.58102 2.25161 -9.23274
-1.60959 2.26292 -9.27913
-1.64258 2.25161 -9.23274
-1.66695 2.22931 -9.14132
-1.68727 2.22931 -9.14132
-1.71096 2.20746 -9.0517
-1.73961 2.21833 -9.09629
-1.75983 2.21833 -9.09629
-1.77132 2.20746 -9.0517
-1.79144 2.20746 -9.0517
-1.81389 2.18603 -8.96382
-1.90281 2.19669 -9.00755
-1.97326 2.18603 -8.96382
-2.00291 2.19669 -9.00755
-2.00338 2.17547 -8.92052
-2.02321 2.17547 -8.92052
-2.07308 2.20746 -9.0517
-2.10006 2.2147 -9.08138
-2.12722 2.22198 -9.11125
-2.16416 2.21833 -9.09629
-2.18438 2.21833 -9.09629
-2.20459 2.21833 -9.09629
-2.26361 2.2367 -9.17159
-2.28399 2.2367 -9.17159
-2.29677 2.22931 -9.14132
-2.31709 2.22931 -9.14132
-2.33741 2.22931 -9.14132
-2.34997 2.22198 -9.11125
-2.37022 2.22198 -9.11125
-2.39047 2.22198 -9.11125
-2.423 2.2147 -9.08138
-2.44318 2.2147 -9.08138
-2.54828 2.21833 -9.09629
-2.58121 2.22931 -9.14132
-2.67572 2.24041 -9.1868
-2.64353 2.19669 -9.00755
-2.71001 2.21833 -9.09629
-2.73023 2.21833 -9.09629
-2.73696 2.20746 -9.0517
-2.80469 2.22931 -9.14132
-2.81109 2.21833 -9.09629
-2.83131 2.21833 -9.09629
-2.85153 2.21833 -9.09629
-7.48057 5.00357 -20.5172
-7.44346 4.94859 -20.2917
-7.48856 4.94859 -20.2917
-7.45177 4.8948 -20.0712
-7.49638 4.8948 -20.0712
-7.4599 4.84217 -19.8553
-7.50403 4.84217 -19.8553
-7.96334 5.07881 -20.8257
-7.97963 5.05979 -20.7477
-8.02574 5.05979 -20.7477
-8.02777 5.00357 -20.5172
3.90136 5.44168 -22.5189
3.6619 5.31211 -21.9827
0.761222 5.18858 -21.4715
-1.02703 2.32405 -9.61743
-1.14337 2.30009 -9.51828
-1.15855 2.2883 -9.46947
-1.19655 2.2805 -9.43721
-1.21753 2.2805 -9.43721
-1.24968 2.26277 -9.36383
-1.27827 2.27662 -9.42116
-1.29921 2.27662 -9.42116
-1.32754 2.25362 -9.326
-1.34827 2.25362 -9.326
-1.369 2.25362 -9.326
-1.39915 2.2689 -9.38922
-1.42001 2.2689 -9.38922
-1.43118 2.25362 -9.326
-1.46672 2.27662 -9.42116
-1.51409 2.25362 -9.326
-1.5426 2.26506 -9.37334
-1.56344 2.26506 -9.37334
-1.56051 2.23109 -9.23274
-1.58102 2.23109 -9.23274
-1.63845 2.25362 -9.326
-1.64258 2.23109 -9.23274
-1.70414 2.23109 -9.23274
-1.71096 2.18734 -9.0517
-1.73961 2.19812 -9.09629
-1.75983 2.19812 -9.09629
-1.77132 2.18734 -9.0517
-1.79144 2.18734 -9.0517
-1.93456 2.14528 -8.87763
-1.97326 2.1661 -8.96382
-1.99319 2.1661 -8.96382
-2.05295 2.1661 -8.96382
-2.07288 2.1661 -8.96382
-2.14305 2.17667 -9.00755
-2.16306 2.17667 -9.00755
-2.24503 2.19812 -9.09629
-2.26524 2.19812 -9.09629
-2.31709 2.209 -9.14132
-2.31449 2.18734 -9.0517
-2.34997 2.20173 -9.11125
-2.40676 2.19812 -9.09629
-2.44318 2.19451 -9.08138
-2.54057 2.209 -9.14132
-2.58121 2.209 -9.14132
-2.71626 2.25362 -9.326
-2.71001 2.19812 -9.09629
-2.73023 2.19812 -9.09629
-2.78437 2.209 -9.14132
-2.80469 2.209 -9.14132
-2.81109 2.19812 -9.09629
-2.83131 2.19812 -9.09629
-7.48057 4.95797 -20.5172
-7.44346 4.90349 -20.2917
-7.48856 4.90349 -20.2917
-7.96334 5.03253 -20.8257
-7.97963 5.01368 -20.7477
-8.02574 5.01368 -20.7477
-7.98217 4.95797 -20.5172
-8.02777 4.95797 -20.5172
-10.7925 5.01368 -20.7477
-10.8386 5.01368 -20.7477
7.02529 5.69245 -23.7753
6.97245 5.69245 -23.7753
3.9038 5.32667 -22.2476
3.90136 5.39163 -22.5189
3.80491 5.32667 -22.2476
3.75547 5.32667 -22.2476
3.61305 5.26326 -21.9827
2.86545 5.32667 -22.2476
2.816 5.32667 -22.2476
2.73362 5.26326 -21.9827
-0.99464 2.32691 -9.71867
-1.0484 2.30268 -9.61743
-1.06424 2.29074 -9.5676
-1.0855 2.29074 -9.5676
-1.19452 2.25568 -9.42116
-1.29921 2.25568 -9.42116
-1.39915 2.24804 -9.38922
-1.43118 2.2329 -9.326
-1.46672 2.25568 -9.42116
-1.50648 2.22168 -9.27913
-1.53481 2.2329 -9.326
-1.56835 2.22168 -9.27913
-1.70414 2.21057 -9.23274
-1.73961 2.1779 -9.09629
-1.75983 2.1779 -9.09629
-1.77132 2.16722 -9.0517
-1.79144 2.16722 -9.0517
-1.79645 2.12555 -8.87763
-1.82495 2.13581 -8.92052
-1.84478 2.13581 -8.92052
-1.87365 2.14618 -8.96382
-1.89358 2.14618 -8.96382
-1.95334 2.14618 -8.96382
-1.97326 2.14618 -8.96382
-1.99319 2.14618 -8.96382
-2.06308 2.1779 -9.09629
-2.08329 2.1779 -9.09629
-2.0932 2.16722 -9.0517
-2.11332 2.16722 -9.0517
-2.14043 2.17433 -9.08138
-2.31709 2.18868 -9.14132
-2.33741 2.18868 -9.14132
-2.34226 2.17433 -9.08138
-2.36245 2.17433 -9.08138
-2.45931 2.18868 -9.14132
-2.49555 2.16722 -9.0517
-2.54057 2.18868 -9.14132
-2.63052 2.19593 -9.17159
-2.68979 2.1779 -9.09629
-2.73697 2.19957 -9.1868
-2.75739 2.19957 -9.1868
-2.80573 2.22168 -9.27913
-2.82635 2.22168 -9.27913
-2.83274 2.21057 -9.23274
-2.83906 2.19957 -9.1868
-2.85948 2.19957 -9.1868
-2.8943 2.21057 -9.23274
-7.48057 4.91237 -20.5172
-7.44346 4.85839 -20.2917
-7.48856 4.85839 -20.2917
-7.50617 4.84066 -20.2177
-7.66297 4.91237 -20.5172
-7.79977 4.91237 -20.5172
-7.84537 4.91237 -20.5172
-7.80425 4.85839 -20.2917
-7.84935 4.85839 -20.2917
-8.97994 5.52642 -23.0818
-8.07337 4.91237 -20.5172
-8.11897 4.91237 -20.5172
-8.16457 4.91237 -20.5172
-8.30241 4.96757 -20.7477
-8.34853 4.96757 -20.7477
-8.30136 4.91237 -20.5172
-10.833 4.98624 -20.8257
-10.8793 4.98624 -20.8257
3.85733 5.2144 -21.9827
3.80491 5.27722 -22.2476
3.75547 5.27722 -22.2476
3.6619 5.2144 -21.9827
3.61305 5.2144 -21.9827
3.56419 5.2144 -21.9827
3.07562 5.2144 -21.9827
3.02676 5.2144 -21.9827
0.743921 4.97738 -20.9835
-0.95144 2.30531 -9.71867
-0.97304 2.30531 -9.71867
-1.0376 2.25778 -9.51828
-1.1375 2.2462 -9.46947
-1.15855 2.2462 -9.46947
-1.18568 2.25778 -9.51828
-1.21546 2.23474 -9.42116
-1.2385 2.23855 -9.43721
-1.25948 2.23855 -9.43721
-1.3224 2.23855 -9.43721
-1.34337 2.23855 -9.43721
-1.36901 2.2462 -9.46947
-1.38297 2.23474 -9.42116
-1.4039 2.23474 -9.42116
-1.43118 2.21217 -9.326
-1.46672 2.23474 -9.42116
-1.48011 2.2234 -9.37334
-1.50094 2.2234 -9.37334
-1.5192 2.21964 -9.3575
-1.54772 2.20105 -9.27913
-1.58102 2.19005 -9.23274
-1.79144 2.14711 -9.0517
-1.85564 2.10582 -8.87763
-1.95429 2.10582 -8.87763
-1.99319 2.12626 -8.96382
-2.04628 2.14011 -9.02222
-2.07308 2.14711 -9.0517
-2.10697 2.16123 -9.11125
-2.16416 2.15768 -9.09629
-2.18438 2.15768 -9.09629
-2.20459 2.15768 -9.09629
-2.22481 2.15768 -9.09629
-2.31709 2.16836 -9.14132
-2.33741 2.16836 -9.14132
-2.36245 2.15415 -9.08138
-2.38654 2.15768 -9.09629
-2.40676 2.15768 -9.09629
-2.42698 2.15768 -9.09629
-2.45931 2.16836 -9.14132
-2.47543 2.14711 -9.0517
-2.54828 2.15768 -9.09629
-2.56849 2.15768 -9.09629
-2.63052 2.17554 -9.17159
-2.64353 2.13663 -9.00755
-2.80469 2.16836 -9.14132
-2.81109 2.15768 -9.09629
-2.83131 2.15768 -9.09629
-8.36434 5.47512 -23.0818
-7.53639 4.90309 -20.6703
-7.52617 4.86677 -20.5172
-7.45177 4.76097 -20.0712
-7.49638 4.76097 -20.0712
-7.70857 4.86677 -20.5172
-7.75417 4.86677 -20.5172
-7.79977 4.86677 -20.5172
-7.84537 4.86677 -20.5172
-7.80425 4.81329 -20.2917
-7.84935 4.81329 -20.2917
-8.97994 5.47512 -23.0818
-7.93955 4.81329 -20.2917
-7.89786 4.76097 -20.0712
-8.02975 4.81329 -20.2917
-8.2563 4.92146 -20.7477
-8.11994 4.81329 -20.2917
-8.16504 4.81329 -20.2917
-8.34696 4.86677 -20.5172
-8.48376 4.86677 -20.5172
-8.52936 4.86677 -20.5172
-8.80296 4.86677 -20.5172
-8.84856 4.86677 -20.5172
-10.833 4.93996 -20.8257
4.10156 5.29153 -22.5189
3.19498 5.04541 -21.4715
3.14726 5.04541 -21.4715
3.07562 5.16554 -21.9827
2.99115 5.10477 -21.7241
2.94287 5.10477 -21.7241
2.89459 5.10477 -21.7241
2.83134 5.16554 -21.9827
2.69091 5.08483 -21.6392
0.743921 4.93075 -20.9835
0.604013 4.93075 -20.9835
-0.97304 2.28371 -9.71867
-1.10106 2.23663 -9.51828
-1.12221 2.23663 -9.51828
-1.2385 2.21758 -9.43721
-1.27178 2.20257 -9.37334
-1.34797 2.22516 -9.46947
-1.38297 2.2138 -9.42116
-1.44578 2.2138 -9.42116
-1.46672 2.2138 -9.42116
-1.82421 2.0728 -8.82108
-1.88443 2.09616 -8.92052
-1.9135 2.10634 -8.96382
-1.93456 2.08608 -8.87763
-1.95429 2.08608 -8.87763
-1.99319 2.10634 -8.96382
-2.04628 2.12006 -9.02222
-2.06633 2.12006 -9.02222
-2.0932 2.12699 -9.0517
-2.11332 2.12699 -9.0517
-2.16416 2.13747 -9.09629
-2.18438 2.13747 -9.09629
-2.29677 2.14805 -9.14132
-2.31709 2.14805 -9.14132
-2.37339 2.16232 -9.20206
-2.42234 2.16953 -9.23274
-2.39496 2.12699 -9.0517
-2.49196 2.15873 -9.1868
-2.5865 2.16953 -9.23274
-2.62914 2.13747 -9.09629
-2.64936 2.13747 -9.09629
-2.65649 2.12699 -9.0517
-2.80469 2.14805 -9.14132
-2.81572 2.14098 -9.11125
-2.83597 2.14098 -9.11125
-2.8943 2.16953 -9.23274
-8.16033 5.29153 -22.5189
-7.48057 4.82117 -20.5172
-7.52617 4.82117 -20.5172
-7.45177 4.71637 -20.0712
-7.49638 4.71637 -20.0712
-7.5856 4.71637 -20.0712
-7.71406 4.76819 -20.2917
-7.93352 4.87534 -20.7477
-7.77577 4.75079 -20.2177
-7.8207 4.75079 -20.2177
-8.76091 5.29153 -22.5189
-8.02777 4.82117 -20.5172
-8.07337 4.82117 -20.5172
-8.11897 4.82117 -20.5172
-8.16457 4.82117 -20.5172
-8.1498 4.78572 -20.3663
-8.34696 4.82117 -20.5172
-8.48376 4.82117 -20.5172
-8.52936 4.82117 -20.5172
-8.71176 4.82117 -20.5172
-8.80296 4.82117 -20.5172
-9.04967 4.93075 -20.9835
-10.7925 4.87534 -20.7477
-10.8386 4.87534 -20.7477
7.08611 5.58184 -23.9811
7.03281 5.58184 -23.9811
3.85132 5.24148 -22.5189
3.75547 5.17833 -22.2476
3.70602 5.17833 -22.2476
3.61305 5.11669 -21.9827
3.12375 5.03674 -21.6392
3.07566 5.03674 -21.6392
3.02756 5.03674 -21.6392
3.02676 5.11669 -21.9827
2.83134 5.11669 -21.9827
2.739 5.03674 -21.6392
2.69091 5.03674 -21.6392
2.62233 4.99769 -21.4715
2.49784 4.94025 -21.2247
2.45067 4.94025 -21.2247
0.743921 4.88411 -20.9835
-1.05875 2.21547 -9.51828
-1.10106 2.21547 -9.51828
-1.18845 2.18173 -9.37334
-1.20929 2.18173 -9.37334
-1.31427 2.14901 -9.23274
-1.33479 2.14901 -9.23274
-1.41045 2.17072 -9.326
-1.43118 2.17072 -9.326
-1.46175 2.18543 -9.38922
-1.48011 2.18173 -9.37334
-1.50094 2.18173 -9.37334
-1.55047 2.19287 -9.42116
-1.80461 2.05319 -8.82108
-1.82421 2.05319 -8.82108
-1.88443 2.07634 -8.92052
-1.95429 2.06635 -8.87763
-2.15456 2.12773 -9.14132
-2.2787 2.14901 -9.23274
-2.27646 2.12773 -9.14132
-2.32476 2.13478 -9.17159
-2.34904 2.13832 -9.1868
-2.37339 2.14187 -9.20206
-2.39384 2.14187 -9.20206
-2.42234 2.14901 -9.23274
-2.49196 2.13832 -9.1868
-2.51567 2.10687 -9.0517
-2.5865 2.14901 -9.23274
-2.61625 2.10687 -9.0517
-2.65649 2.10687 -9.0517
-2.71001 2.11725 -9.09629
-2.73023 2.11725 -9.09629
-2.77781 2.13832 -9.1868
-2.79823 2.13832 -9.1868
-2.80469 2.12773 -9.14132
-2.81572 2.12073 -9.11125
-2.86233 2.14045 -9.19595
-2.8943 2.14901 -9.23274
-2.91482 2.14901 -9.23274
-7.31795 4.67176 -20.0712
-7.44346 4.7231 -20.2917
-7.62386 4.7231 -20.2917
-7.75417 4.77557 -20.5172
-7.79977 4.77557 -20.5172
-7.8207 4.70586 -20.2177
-8.76091 5.24148 -22.5189
-8.02777 4.77557 -20.5172
-8.07337 4.77557 -20.5172
-8.11897 4.77557 -20.5172
-8.16457 4.77557 -20.5172
-8.1498 4.74046 -20.3663
-8.19506 4.74046 -20.3663
-8.1209 4.67176 -20.0712
-8.25524 4.7231 -20.2917
-8.34544 4.7231 -20.2917
-8.39054 4.7231 -20.2917
-8.66616 4.77557 -20.5172
-8.71176 4.77557 -20.5172
-8.90187 4.82923 -20.7477
-8.98536 4.77557 -20.5172
-10.7925 4.82923 -20.7477
-10.8386 4.82923 -20.7477
7.08611 5.52854 -23.9811
7.03281 5.52854 -23.9811
3.85132 5.19144 -22.5189
3.75547 5.12889 -22.2476
3.70602 5.12889 -22.2476
3.30078 5.19144 -22.5189
3.07566 4.98865 -21.6392
3.02756 4.98865 -21.6392
3.02676 5.06783 -21.9827
2.88019 5.06783 -21.9827
2.90039 5.19144 -22.5189
2.64282 4.98865 -21.6392
2.58705 5.06783 -21.9827
-0.99464 2.24051 -9.71867
-1.00916 2.2249 -9.65094
-1.03061 2.2249 -9.65094
-1.0376 2.19432 -9.51828
-1.05875 2.19432 -9.51828
-1.33428 2.1609 -9.37334
-1.4532 2.18307 -9.46947
-1.47424 2.18307 -9.46947
-1.53481 2.14999 -9.326
-1.85564 2.04662 -8.87763
-1.9253 2.03683 -8.83515
-1.95429 2.04662 -8.87763
-2.14043 2.0936 -9.08138
-2.17487 2.10741 -9.14132
-2.19519 2.10741 -9.14132
-2.2787 2.12849 -9.23274
-2.29922 2.12849 -9.23274
-2.30438 2.11439 -9.17159
-2.32476 2.11439 -9.17159
-2.36078 2.12849 -9.23274
-2.49196 2.1179 -9.1868
-2.57272 2.10048 -9.11125
-2.71656 2.1179 -9.1868
-2.81865 2.1179 -9.1868
-8.31174 5.25553 -22.7969
-7.69722 4.83747 -20.9835
-7.62386 4.678 -20.2917
-7.75417 4.72997 -20.5172
-7.79977 4.72997 -20.5172
-7.84537 4.72997 -20.5172
-8.86907 5.25553 -22.7969
-7.93955 4.678 -20.2917
-8.07337 4.72997 -20.5172
-7.94247 4.62715 -20.0712
-8.07484 4.678 -20.2917
-8.1209 4.62715 -20.0712
-8.16551 4.62715 -20.0712
-8.39256 4.72997 -20.5172
-8.43816 4.72997 -20.5172
-8.67658 4.83747 -20.9835
-8.72321 4.83747 -20.9835
-8.66616 4.72997 -20.5172
-8.71176 4.72997 -20.5172
-9.04967 4.83747 -20.9835
-8.76432 4.66092 -20.2177
-8.80925 4.66092 -20.2177
-8.88662 4.678 -20.2917
-9.03096 4.72997 -20.5172
-9.07656 4.72997 -20.5172
-5.26956 2.34544 -10.1738
6.8777 5.31421 -23.2758
6.82597 5.31421 -23.2758
3.90619 5.01897 -21.9827
3.85733 5.01897 -21.9827
3.85436 5.07944 -22.2476
3.61305 5.01897 -21.9827
3.30078 5.14139 -22.5189
3.21157 5.07944 -22.2476
3.16212 5.07944 -22.2476
3.07562 5.01897 -21.9827
2.97791 5.01897 -21.9827
2.88019 5.01897 -21.9827
2.78248 5.01897 -21.9827
2.73362 5.01897 -21.9827
2.68477 5.01897 -21.9827
2.63591 5.01897 -21.9827
2.44048 5.01897 -21.9827
0.856663 4.90225 -21.4715
-0.99464 2.21891 -9.71867
-1.03061 2.20345 -9.65094
-1.06978 2.1958 -9.61743
-1.10106 2.17316 -9.51828
-1.12803 2.18442 -9.5676
-1.29921 2.15099 -9.42116
-1.30681 2.12926 -9.326
-1.33428 2.14007 -9.37334
-1.44088 2.1437 -9.38922
-1.48011 2.14007 -9.37334
-1.50094 2.14007 -9.37334
-2.06308 2.07682 -9.09629
-2.08329 2.07682 -9.09629
-2.12444 2.09748 -9.1868
-2.14486 2.09748 -9.1868
-2.15456 2.0871 -9.14132
-2.17487 2.0871 -9.14132
-2.23582 2.0871 -9.14132
-2.27646 2.0871 -9.14132
-2.36078 2.10797 -9.23274
-2.57272 2.08023 -9.11125
-2.59297 2.08023 -9.11125
-2.72107 2.10097 -9.20206
-2.77781 2.09748 -9.1868
-2.79823 2.09748 -9.1868
-2.80469 2.0871 -9.14132
-2.87378 2.10797 -9.23274
-8.41564 5.26992 -23.0818
-7.53366 4.6329 -20.2917
-7.57876 4.6329 -20.2917
-7.54099 4.58254 -20.0712
-7.75417 4.68437 -20.5172
-7.63021 4.58254 -20.0712
-7.80425 4.6329 -20.2917
-7.84935 4.6329 -20.2917
-10.1468 5.95471 -26.0812
-7.85325 4.58254 -20.0712
-7.95551 4.61599 -20.2177
-8.39676 4.79084 -20.9835
-8.24032 4.64993 -20.3663
-8.34696 4.68437 -20.5172
-8.43816 4.68437 -20.5172
-8.48376 4.68437 -20.5172
-8.52936 4.68437 -20.5172
-8.49471 4.61599 -20.2177
-8.47777 4.58254 -20.0712
-8.61603 4.6329 -20.2917
-8.75736 4.68437 -20.5172
-8.80296 4.68437 -20.5172
-8.84856 4.68437 -20.5172
-8.80925 4.61599 -20.2177
-8.88662 4.6329 -20.2917
-9.03096 4.68437 -20.5172
-9.07656 4.68437 -20.5172
-2.06566 0.906653 -3.97107
-2.07448 0.906653 -3.97107
6.93598 5.30707 -23.4731
6.82597 5.26248 -23.2758
3.71076 4.97012 -21.9827
3.6619 4.97012 -21.9827
3.61305 4.97012 -21.9827
3.30078 5.09134 -22.5189
3.21157 5.03 -22.2476
3.16212 5.03 -22.2476
3.07562 4.97012 -21.9827
3.02676 4.97012 -21.9827
2.97791 4.97012 -21.9827
2.92905 4.97012 -21.9827
2.88019 4.97012 -21.9827
2.83134 4.97012 -21.9827
2.74974 4.91164 -21.7241
2.70146 4.91164 -21.7241
2.62233 4.85453 -21.4715
2.58705 4.97012 -21.9827
2.44048 4.97012 -21.9827
-1.0484 2.17443 -9.61743
-1.09115 2.17443 -9.61743
-1.10676 2.16316 -9.5676
-1.4111 2.14097 -9.46947
-1.48011 2.11924 -9.37334
-1.50094 2.11924 -9.37334
-1.93678 1.96929 -8.71013
-2.03699 2.03059 -8.98126
-2.05695 2.03059 -8.98126
-2.10351 2.0566 -9.09629
-2.12303 2.03654 -9.00755
-2.25614 2.06678 -9.14132
-2.29158 2.08051 -9.20206
-2.75066 2.08745 -9.23274
-2.75708 2.04652 -9.0517
-2.79088 2.0566 -9.09629
-2.81109 2.0566 -9.09629
-2.86423 2.08051 -9.20206
-2.92457 2.09443 -9.26361
-8.31174 5.15419 -22.7969
-7.58926 4.62166 -20.4415
-7.63469 4.62166 -20.4415
-7.70857 4.63877 -20.5172
-7.71406 4.5878 -20.2917
-7.84537 4.63877 -20.5172
-7.80425 4.5878 -20.2917
-7.84935 4.5878 -20.2917
-8.97994 5.21862 -23.0818
-8.02777 4.63877 -20.5172
-8.16457 4.63877 -20.5172
-8.21017 4.63877 -20.5172
-8.1209 4.53793 -20.0712
-8.16551 4.53793 -20.0712
-8.48376 4.63877 -20.5172
-8.52936 4.63877 -20.5172
-8.44978 4.57106 -20.2177
-8.49471 4.57106 -20.2177
-8.47777 4.53793 -20.0712
-8.71176 4.63877 -20.5172
-8.75736 4.63877 -20.5172
-8.80296 4.63877 -20.5172
-8.84856 4.63877 -20.5172
-8.79642 4.5878 -20.2917
-8.84152 4.5878 -20.2917
-8.98536 4.63877 -20.5172
-9.03096 4.63877 -20.5172
-9.05509 4.60467 -20.3663
-9.30456 4.63877 -20.5172
-2.06566 0.897827 -3.97107
-2.07448 0.897827 -3.97107
6.93598 5.2549 -23.4731
6.88381 5.2549 -23.4731
3.71076 4.92126 -21.9827
3.6619 4.92126 -21.9827
3.61305 4.92126 -21.9827
3.17333 4.92126 -21.9827
3.00409 4.80681 -21.4715
3.02676 4.92126 -21.9827
2.97791 4.92126 -21.9827
2.92905 4.92126 -21.9827
2.88019 4.92126 -21.9827
2.83134 4.92126 -21.9827
2.62233 4.80681 -21.4715
2.58705 4.92126 -21.9827
2.53819 4.92126 -21.9827
2.48934 4.92126 -21.9827
2.44048 4.92126 -21.9827
2.19284 4.80681 -21.4715
2.17036 4.86336 -21.7241
2.12208 4.86336 -21.7241
2.00196 4.80681 -21.4715
0.856663 4.80681 -21.4715
0.697285 4.69757 -20.9835
0.665781 4.80681 -21.4715
-1.0484 2.15305 -9.61743
-1.06978 2.15305 -9.61743
-1.10676 2.1419 -9.5676
-1.12803 2.1419 -9.5676
-1.42001 2.10196 -9.38922
-1.93678 1.94993 -8.71013
-2.03699 2.01063 -8.98126
-2.05695 2.01063 -8.98126
-2.12303 2.01652 -9.00755
-2.19519 2.04646 -9.14132
-2.23582 2.04646 -9.14132
-2.25614 2.04646 -9.14132
-2.29158 2.06006 -9.20206
-2.62589 2.0984 -9.37334
-2.65764 1.99703 -8.92052
-2.78437 2.04646 -9.14132
-2.82501 2.04646 -9.14132
-2.90281 2.08781 -9.326
-2.90398 2.07384 -9.26361
-2.92457 2.07384 -9.26361
-8.36434 5.16732 -23.0818
-8.70583 5.34551 -23.8778
-7.53826 4.57285 -20.4264
-7.58366 4.57285 -20.4264
-7.62906 4.57285 -20.4264
-7.54099 4.49332 -20.0712
-7.71406 4.5427 -20.2917
-7.84537 4.59318 -20.5172
-7.80425 4.5427 -20.2917
-7.84935 4.5427 -20.2917
-8.86907 5.10353 -22.7969
-7.85325 4.49332 -20.0712
-10.2916 5.82233 -26.0077
-8.10453 4.5594 -20.3663
-8.21017 4.59318 -20.5172
-8.1209 4.49332 -20.0712
-8.16551 4.49332 -20.0712
-8.25473 4.49332 -20.0712
-8.48376 4.59318 -20.5172
-8.52936 4.59318 -20.5172
-8.57496 4.59318 -20.5172
-8.62056 4.59318 -20.5172
-8.66616 4.59318 -20.5172
-8.80965 4.64478 -20.7477
-8.85576 4.64478 -20.7477
-8.90187 4.64478 -20.7477
-9.04967 4.69757 -20.9835
-8.9941 4.64478 -20.7477
-9.04021 4.64478 -20.7477
-8.88662 4.5427 -20.2917
-9.13243 4.64478 -20.7477
-9.17854 4.64478 -20.7477
-9.27077 4.64478 -20.7477
-9.21336 4.59318 -20.5172
-9.25896 4.59318 -20.5172
-9.10229 4.49332 -20.0712
-10.7925 4.64478 -20.7477
-10.8386 4.64478 -20.7477
3.80847 4.8724 -21.9827
3.17333 4.8724 -21.9827
3.00409 4.75909 -21.4715
2.95637 4.75909 -21.4715
2.88019 4.8724 -21.9827
2.83134 4.8724 -21.9827
2.78248 4.8724 -21.9827
2.62233 4.75909 -21.4715
2.57461 4.75909 -21.4715
2.52689 4.75909 -21.4715
2.47917 4.75909 -21.4715
2.36349 4.81508 -21.7241
2.31521 4.81508 -21.7241
2.24056 4.75909 -21.4715
2.19284 4.75909 -21.4715
2.17036 4.81508 -21.7241
2.12208 4.81508 -21.7241
0.686878 4.58151 -20.6703
-0.964984 2.18478 -9.85701
-1.31345 2.07757 -9.37334
-1.42001 2.08109 -9.38922
-1.49895 2.04641 -9.23274
-1.95613 1.93057 -8.71013
-2.04633 1.9804 -8.93491
-2.06619 1.9804 -8.93491
-2.09959 1.99326 -8.99292
-2.11958 1.99326 -8.99292
-2.16772 2.01948 -9.11125
-2.19519 2.02615 -9.14132
-2.22847 2.01948 -9.11125
-2.31974 2.04641 -9.23274
-2.39583 2.04131 -9.20971
-2.59614 2.00628 -9.0517
-2.6891 2.04641 -9.23274
-2.68979 2.01617 -9.09629
-2.71001 2.01617 -9.09629
-2.90281 2.06708 -9.326
-2.92353 2.06708 -9.326
-2.94426 2.06708 -9.326
-8.70583 5.29244 -23.8778
-7.58366 4.52745 -20.4264
-7.62906 4.52745 -20.4264
-7.54099 4.44872 -20.0712
-7.75417 4.54758 -20.5172
-7.79977 4.54758 -20.5172
-7.84537 4.54758 -20.5172
-7.80425 4.4976 -20.2917
-7.84935 4.4976 -20.2917
-9.28959 5.29244 -23.8778
-7.85325 4.44872 -20.0712
-8.04357 4.53079 -20.4415
-8.08901 4.53079 -20.4415
-8.16457 4.54758 -20.5172
-8.21017 4.54758 -20.5172
-8.48686 4.59867 -20.7477
-8.53297 4.59867 -20.7477
-8.48376 4.54758 -20.5172
-8.6252 4.59867 -20.7477
-8.57496 4.54758 -20.5172
-8.62056 4.54758 -20.5172
-8.47777 4.44872 -20.0712
-8.80965 4.59867 -20.7477
-8.85576 4.59867 -20.7477
-8.80296 4.54758 -20.5172
-8.84856 4.54758 -20.5172
-8.79642 4.4976 -20.2917
-8.84152 4.4976 -20.2917
-8.79003 4.44872 -20.0712
-9.13243 4.59867 -20.7477
-9.17854 4.59867 -20.7477
-9.12216 4.54758 -20.5172
-9.16776 4.54758 -20.5172
-9.21336 4.54758 -20.5172
-9.25896 4.54758 -20.5172
-10.833 4.61596 -20.8257
-10.8793 4.61596 -20.8257
7.02529 5.21688 -23.7753
3.22219 4.82355 -21.9827
3.00409 4.71137 -21.4715
2.95637 4.71137 -21.4715
2.90865 4.71137 -21.4715
2.89459 4.7668 -21.7241
2.81321 4.71137 -21.4715
2.83134 4.82355 -21.9827
2.78248 4.82355 -21.9827
2.62233 4.71137 -21.4715
2.57461 4.71137 -21.4715
2.52689 4.71137 -21.4715
2.47917 4.71137 -21.4715
2.336 4.71137 -21.4715
2.20636 4.63944 -21.1437
2.1962 4.82355 -21.9827
2.14734 4.82355 -21.9827
0.732818 4.53557 -20.6703
0.686878 4.53557 -20.6703
-0.927773 2.17838 -9.92767
-0.939732 2.1552 -9.82206
-0.961562 2.1552 -9.82206
-0.983392 2.1552 -9.82206
-1.06978 2.1103 -9.61743
-1.33428 2.05674 -9.37334
-1.38532 2.07076 -9.43721
-1.4087 2.07429 -9.45331
-1.43118 2.04635 -9.326
-1.49895 2.02589 -9.23274
-1.97476 1.92942 -8.79308
-2.03975 1.95423 -8.90618
-2.06786 1.96212 -8.94212
-2.10301 1.97648 -9.00755
-2.11958 1.97327 -8.99292
-2.16772 1.99923 -9.11125
-2.19519 2.00583 -9.14132
-2.21551 2.00583 -9.14132
-2.26195 2.02927 -9.24815
-2.28251 2.02927 -9.24815
-2.3082 2.01581 -9.1868
-2.36553 2.01247 -9.17159
-2.39583 2.02084 -9.20971
-2.40917 1.98131 -9.02957
-2.51197 1.99923 -9.11125
-2.67572 2.01581 -9.1868
-2.69614 2.01581 -9.1868
-2.68979 1.99595 -9.09629
-2.71001 1.99595 -9.09629
-2.78978 2.03949 -9.2947
-2.80573 2.03607 -9.27913
-2.81691 2.02927 -9.24815
-2.83747 2.02927 -9.24815
-2.90281 2.04635 -9.326
-2.92353 2.04635 -9.326
-8.31174 5.0022 -22.7969
-7.57177 4.50198 -20.5172
-7.61737 4.50198 -20.5172
-7.66297 4.50198 -20.5172
-7.54099 4.40411 -20.0712
-7.5856 4.40411 -20.0712
-7.63021 4.40411 -20.0712
-7.67482 4.40411 -20.0712
-7.89097 4.50198 -20.5172
-8.86907 5.0022 -22.7969
-8.02777 4.50198 -20.5172
-8.16408 4.55256 -20.7477
-8.21019 4.55256 -20.7477
-8.16457 4.50198 -20.5172
-8.21017 4.50198 -20.5172
-8.16551 4.40411 -20.0712
-8.39256 4.50198 -20.5172
-8.43816 4.50198 -20.5172
-8.39054 4.4525 -20.2917
-8.34394 4.40411 -20.0712
-8.75736 4.50198 -20.5172
-8.70623 4.4525 -20.2917
-8.84856 4.50198 -20.5172
-8.9941 4.55256 -20.7477
-9.04021 4.55256 -20.7477
-9.13243 4.55256 -20.7477
-9.17854 4.55256 -20.7477
-9.12216 4.50198 -20.5172
-9.16776 4.50198 -20.5172
-9.21336 4.50198 -20.5172
-9.25896 4.50198 -20.5172
-9.56266 4.60429 -20.9835
-10.833 4.56967 -20.8257
7.02529 5.16404 -23.7753
6.97245 5.16404 -23.7753
3.25073 4.89114 -22.5189
3.16212 4.83221 -22.2476
3.11268 4.83221 -22.2476
3.02676 4.77469 -21.9827
2.97791 4.77469 -21.9827
2.92905 4.77469 -21.9827
2.88019 4.77469 -21.9827
2.83134 4.77469 -21.9827
2.78248 4.77469 -21.9827
2.52689 4.66365 -21.4715
2.39162 4.77469 -21.9827
2.31521 4.71852 -21.7241
2.26692 4.71852 -21.7241
2.19284 4.66365 -21.4715
2.17036 4.71852 -21.7241
2.12208 4.71852 -21.7241
2.04968 4.66365 -21.4715
1.97723 4.71852 -21.7241
1.92895 4.71852 -21.7241
1.88067 4.71852 -21.7241
1.16365 4.55766 -20.9835
0.808943 4.66365 -21.4715
0.761222 4.66365 -21.4715
0.665781 4.66365 -21.4715
-0.927773 2.15631 -9.92767
-0.961562 2.13337 -9.82206
-0.979917 2.12583 -9.78735
-1.00167 2.12583 -9.78735
-1.03784 2.11091 -9.71867
-1.09115 2.08893 -9.61743
-1.1339 2.08893 -9.61743
-1.36435 2.04978 -9.43721
-1.38769 2.05328 -9.45331
-1.4087 2.05328 -9.45331
-1.97476 1.90988 -8.79308
-2.19519 1.98551 -9.14132
-2.21551 1.98551 -9.14132
-2.26195 2.00872 -9.24815
-2.28251 2.00872 -9.24815
-2.29158 1.99871 -9.20206
-2.3082 1.99539 -9.1868
-2.34515 1.99209 -9.17159
-2.36553 1.99209 -9.17159
-2.39583 2.00037 -9.20971
-2.4163 2.00037 -9.20971
-2.40917 1.96124 -9.02957
-2.42924 1.96124 -9.02957
-2.51197 1.97898 -9.11125
-2.62914 1.97573 -9.09629
-2.67572 1.99539 -9.1868
-2.69614 1.99539 -9.1868
-2.68979 1.97573 -9.09629
-2.71001 1.97573 -9.09629
-2.81691 2.00872 -9.24815
-2.90281 2.02563 -9.326
-2.94335 2.03936 -9.38922
-8.36434 5.01342 -23.0818
-7.31795 4.3595 -20.0712
-7.36256 4.3595 -20.0712
-7.57177 4.45638 -20.5172
-7.79518 4.50645 -20.7477
-7.79977 4.45638 -20.5172
-7.84537 4.45638 -20.5172
-7.89097 4.45638 -20.5172
-8.97994 5.01342 -23.0818
-7.85325 4.3595 -20.0712
-8.75425 4.83221 -22.2476
-8.8037 4.83221 -22.2476
-7.98707 4.3595 -20.0712
-8.03168 4.3595 -20.0712
-8.19506 4.42361 -20.3663
-8.39256 4.45638 -20.5172
-8.43816 4.45638 -20.5172
-8.39054 4.4074 -20.2917
-8.34394 4.3595 -20.0712
-8.80965 4.50645 -20.7477
-8.85576 4.50645 -20.7477
-8.80296 4.45638 -20.5172
-8.84856 4.45638 -20.5172
-8.98536 4.45638 -20.5172
-9.13243 4.50645 -20.7477
-9.17854 4.50645 -20.7477
-9.12216 4.45638 -20.5172
-9.27077 4.50645 -20.7477
-9.31688 4.50645 -20.7477
-9.36299 4.50645 -20.7477
-9.44136 4.45638 -20.5172
-2.09742 0.879548 -4.04945
-10.9151 4.55766 -20.9835
6.90672 5.02493 -23.374
6.85477 5.02493 -23.374
3.22219 4.72583 -21.9827
3.17333 4.72583 -21.9827
3.12448 4.72583 -21.9827
3.07562 4.72583 -21.9827
2.95637 4.61593 -21.4715
2.90865 4.61593 -21.4715
2.96434 4.78277 -22.2476
2.91489 4.78277 -22.2476
2.78248 4.72583 -21.9827
2.58705 4.72583 -21.9827
2.48934 4.72583 -21.9827
2.19284 4.61593 -21.4715
2.1962 4.72583 -21.9827
2.04968 4.61593 -21.4715
2.00196 4.61593 -21.4715
1.95424 4.61593 -21.4715
1.8846 4.56287 -21.2247
1.83743 4.56287 -21.2247
1.81108 4.61593 -21.4715
1.77022 4.63389 -21.555
1.72231 4.63389 -21.555
1.50723 4.56287 -21.2247
1.46005 4.56287 -21.2247
1.42931 4.61593 -21.4715
1.23843 4.61593 -21.4715
1.14299 4.61593 -21.4715
0.808943 4.61593 -21.4715
0.681632 4.72583 -21.9827
-0.979917 2.10408 -9.78735
-1.11641 2.07476 -9.65094
-1.13785 2.07476 -9.65094
-1.13945 2.03923 -9.48569
-1.24486 2.03923 -9.48569
-1.32015 2.02536 -9.42116
-1.36203 2.02536 -9.42116
-1.38972 2.0049 -9.326
-1.42484 2.02536 -9.42116
-1.47263 2.0049 -9.326
-2.04633 1.92082 -8.93491
-2.06619 1.92082 -8.93491
-2.09959 1.93329 -8.99292
-2.15256 1.92704 -8.96382
-2.22847 1.95873 -9.11125
-2.25614 1.9652 -9.14132
-2.27646 1.9652 -9.14132
-2.28922 1.95873 -9.11125
-2.34904 1.97497 -9.1868
-2.36945 1.97497 -9.1868
-2.40917 1.94117 -9.02957
-2.56639 1.95391 -9.08883
-2.58871 1.95552 -9.09629
-2.60893 1.95552 -9.09629
-2.63782 1.91773 -8.92052
-2.81222 1.98485 -9.23274
-2.82333 1.97826 -9.20206
-2.84378 1.97826 -9.20206
-2.88822 1.99482 -9.27913
-2.94335 2.01849 -9.38922
-7.39836 4.36231 -20.2917
-7.52617 4.41078 -20.5172
-7.70857 4.41078 -20.5172
-7.71406 4.36231 -20.2917
-7.67482 4.31489 -20.0712
-8.02777 4.41078 -20.5172
-8.75425 4.78277 -22.2476
-8.8037 4.78277 -22.2476
-7.98707 4.31489 -20.0712
-8.03168 4.31489 -20.0712
-8.19506 4.37834 -20.3663
-8.24032 4.37834 -20.3663
-8.16551 4.31489 -20.0712
-8.48686 4.46034 -20.7477
-8.53297 4.46034 -20.7477
-8.48376 4.41078 -20.5172
-8.6252 4.46034 -20.7477
-8.67131 4.46034 -20.7477
-8.71742 4.46034 -20.7477
-8.57093 4.36231 -20.2917
-8.80965 4.46034 -20.7477
-8.85576 4.46034 -20.7477
-8.80296 4.41078 -20.5172
-8.86134 4.3945 -20.4415
-8.90677 4.3945 -20.4415
-8.79003 4.31489 -20.0712
-9.13243 4.46034 -20.7477
-9.12216 4.41078 -20.5172
-9.23614 4.37834 -20.3663
-9.44136 4.41078 -20.5172
-9.53256 4.41078 -20.5172
-9.54281 4.3945 -20.4415
-9.58825 4.3945 -20.4415
-10.8685 4.51102 -20.9835
6.90672 4.97299 -23.374
6.85477 4.97299 -23.374
3.22219 4.67697 -21.9827
2.90865 4.56821 -21.4715
2.96434 4.73332 -22.2476
2.91489 4.73332 -22.2476
2.83134 4.67697 -21.9827
2.70146 4.62195 -21.7241
2.65318 4.62195 -21.7241
2.57461 4.56821 -21.4715
2.58705 4.67697 -21.9827
2.50833 4.62195 -21.7241
2.46005 4.62195 -21.7241
2.38373 4.56821 -21.4715
2.00196 4.56821 -21.4715
1.95424 4.56821 -21.4715
1.89185 4.53307 -21.3063
1.81108 4.56821 -21.4715
1.77022 4.58598 -21.555
1.58337 4.46439 -20.9835
1.57247 4.56821 -21.4715
1.51887 4.55057 -21.3886
1.47133 4.55057 -21.3886
1.28615 4.56821 -21.4715
1.23843 4.56821 -21.4715
1.14299 4.56821 -21.4715
1.09527 4.56821 -21.4715
1.04755 4.56821 -21.4715
0.999825 4.56821 -21.4715
0.88383 4.46439 -20.9835
0.790558 4.46439 -20.9835
-1.13785 2.05331 -9.65094
-1.13945 2.01815 -9.48569
-1.16053 2.01815 -9.48569
-1.17358 2.00442 -9.42116
-1.20064 2.0147 -9.46947
-1.23639 2.00442 -9.42116
-1.2703 2.02508 -9.51828
-1.28483 2.0147 -9.46947
-1.30587 2.0147 -9.46947
-1.31567 1.99762 -9.38922
-1.42484 2.00442 -9.42116
-2.07691 1.91083 -8.98126
-2.07248 1.87079 -8.79308
-2.2139 1.92581 -9.0517
-2.28922 1.93848 -9.11125
-2.30947 1.93848 -9.11125
-2.32208 1.93213 -9.08138
-2.35772 1.94488 -9.14132
-2.39836 1.94488 -9.14132
-2.41867 1.94488 -9.14132
-2.43899 1.94488 -9.14132
-2.44719 1.9353 -9.09629
-2.46741 1.9353 -9.09629
-2.50373 1.93213 -9.08138
-2.56639 1.93371 -9.08883
-2.59724 1.94168 -9.12626
-2.61752 1.94168 -9.12626
-2.64216 1.94488 -9.14132
-2.70962 1.96433 -9.23274
-2.71656 1.95456 -9.1868
-2.73697 1.95456 -9.1868
-2.81222 1.96433 -9.23274
-2.82333 1.9578 -9.20206
-2.94426 1.98417 -9.326
-8.02977 4.71439 -22.1586
-7.48057 4.36518 -20.5172
-7.36256 4.27028 -20.0712
-7.57177 4.36518 -20.5172
-7.70857 4.36518 -20.5172
-7.71406 4.31721 -20.2917
-7.67482 4.27028 -20.0712
-8.02777 4.36518 -20.5172
-10.0452 5.43133 -25.5283
-10.1019 5.43133 -25.5283
-8.16457 4.36518 -20.5172
-8.34853 4.41422 -20.7477
-8.39464 4.41422 -20.7477
-8.44075 4.41422 -20.7477
-8.48686 4.41422 -20.7477
-8.53297 4.41422 -20.7477
-8.48376 4.36518 -20.5172
-8.52936 4.36518 -20.5172
-8.48073 4.31721 -20.2917
-8.52583 4.31721 -20.2917
-8.66616 4.36518 -20.5172
-8.61603 4.31721 -20.2917
-8.66113 4.31721 -20.2917
-8.67445 4.30145 -20.2177
-8.84856 4.36518 -20.5172
-8.89416 4.36518 -20.5172
-8.88662 4.31721 -20.2917
-9.23621 4.46439 -20.9835
-9.10229 4.27028 -20.0712
-9.63566 4.49846 -21.1437
-9.44136 4.36518 -20.5172
-9.59355 4.41422 -20.7477
-9.74921 4.46439 -20.9835
-9.79584 4.46439 -20.9835
-9.58825 4.34907 -20.4415
-2.09783 0.869172 -4.08528
-4.5308 1.85314 -8.71013
6.82038 4.85952 -23.0818
6.76908 4.85952 -23.0818
3.22219 4.62812 -21.9827
2.95637 4.52049 -21.4715
2.90865 4.52049 -21.4715
2.89459 4.57367 -21.7241
2.84631 4.57367 -21.7241
2.76549 4.52049 -21.4715
2.70146 4.57367 -21.7241
2.65318 4.57367 -21.7241
2.57461 4.52049 -21.4715
2.50833 4.57367 -21.7241
2.46005 4.57367 -21.7241
2.38373 4.52049 -21.4715
2.336 4.52049 -21.4715
2.14512 4.52049 -21.4715
2.00196 4.52049 -21.4715
1.95424 4.52049 -21.4715
1.89185 4.48571 -21.3063
1.8445 4.48571 -21.3063
1.81108 4.52049 -21.4715
1.79113 4.59168 -21.8096
1.62019 4.52049 -21.4715
1.57247 4.52049 -21.4715
1.52475 4.52049 -21.4715
1.47703 4.52049 -21.4715
1.46334 4.62812 -21.9827
1.38159 4.52049 -21.4715
1.33387 4.52049 -21.4715
1.28615 4.52049 -21.4715
1.23843 4.52049 -21.4715
1.09527 4.52049 -21.4715
1.04755 4.52049 -21.4715
0.999825 4.52049 -21.4715
0.790558 4.41775 -20.9835
-1.06978 2.0248 -9.61743
-1.0855 2.01431 -9.5676
-1.10676 2.01431 -9.5676
-1.12221 2.00393 -9.51828
-1.14337 2.00393 -9.51828
-1.25733 1.98348 -9.42116
-1.28483 1.99365 -9.46947
-1.30587 1.99365 -9.46947
-1.31567 1.97676 -9.38922
-1.32754 1.96344 -9.326
-1.369 1.96344 -9.326
-1.42484 1.98348 -9.42116
-1.41847 1.91823 -9.11125
-1.93678 1.83378 -8.71013
-2.05294 1.85125 -8.79308
-2.07248 1.85125 -8.79308
-2.13187 1.86905 -8.87763
-2.17249 1.88719 -8.96382
-2.2031 1.8964 -9.00755
-2.38987 1.93414 -9.1868
-2.41029 1.93414 -9.1868
-2.41867 1.92456 -9.14132
-2.42698 1.91508 -9.09629
-2.44719 1.91508 -9.09629
-2.52026 1.92456 -9.14132
-2.56639 1.91351 -9.08883
-2.58659 1.91351 -9.08883
-2.64216 1.92456 -9.14132
-2.8676 1.95358 -9.27913
-2.90281 1.96344 -9.326
-2.93341 1.97008 -9.3575
-8.36434 4.85952 -23.0818
-7.31795 4.22567 -20.0712
-7.36256 4.22567 -20.0712
-7.40716 4.22567 -20.0712
-7.45177 4.22567 -20.0712
-7.49638 4.22567 -20.0712
-7.70857 4.31958 -20.5172
-7.66896 4.27211 -20.2917
-7.71406 4.27211 -20.2917
-8.57149 4.66514 -22.1586
-8.62074 4.66514 -22.1586
-8.02777 4.31958 -20.5172
-10.0917 5.39947 -25.6465
-10.1487 5.39947 -25.6465
-8.21017 4.31958 -20.5172
-8.16504 4.27211 -20.2917
-8.21014 4.27211 -20.2917
-8.34696 4.31958 -20.5172
-8.30034 4.27211 -20.2917
-8.34544 4.27211 -20.2917
-8.29933 4.22567 -20.0712
-8.46665 4.28782 -20.3663
-8.44978 4.25652 -20.2177
-8.49471 4.25652 -20.2177
-8.86312 4.41775 -20.9835
-8.80965 4.36811 -20.7477
-8.85576 4.36811 -20.7477
-8.80296 4.31958 -20.5172
-8.89416 4.31958 -20.5172
-9.18957 4.41775 -20.9835
-9.23621 4.41775 -20.9835
-9.27077 4.36811 -20.7477
-9.42275 4.41775 -20.9835
-9.30456 4.31958 -20.5172
-9.56266 4.41775 -20.9835
-9.74921 4.41775 -20.9835
-9.68578 4.36811 -20.7477
-9.73189 4.36811 -20.7477
-9.88912 4.41775 -20.9835
-9.82411 4.36811 -20.7477
-9.87023 4.36811 -20.7477
-9.80616 4.31958 -20.5172
-2.09742 0.852548 -4.04945
-10.9151 4.41775 -20.9835
6.82038 4.80822 -23.0818
6.76908 4.80822 -23.0818
3.17333 4.57926 -21.9827
3.12448 4.57926 -21.9827
3.03944 4.52539 -21.7241
2.99115 4.52539 -21.7241
2.90865 4.47277 -21.4715
2.76549 4.47277 -21.4715
2.74974 4.52539 -21.7241
2.67005 4.47277 -21.4715
2.58705 4.57926 -21.9827
2.14512 4.47277 -21.4715
2.02551 4.52539 -21.7241
1.97723 4.52539 -21.7241
1.95191 4.57926 -21.9827
1.8542 4.57926 -21.9827
1.80534 4.57926 -21.9827
1.73582 4.52539 -21.7241
1.68754 4.52539 -21.7241
1.62019 4.47277 -21.4715
1.57247 4.47277 -21.4715
1.52475 4.47277 -21.4715
1.42931 4.47277 -21.4715
1.38159 4.47277 -21.4715
1.31854 4.42136 -21.2247
1.27137 4.42136 -21.2247
1.21028 4.37111 -20.9835
1.16365 4.37111 -20.9835
1.09527 4.47277 -21.4715
1.04755 4.47277 -21.4715
0.999825 4.47277 -21.4715
0.941161 4.42136 -21.2247
0.893989 4.42136 -21.2247
0.850074 4.43836 -21.3063
-1.0855 1.99305 -9.5676
-1.10676 1.99305 -9.5676
-1.12221 1.98277 -9.51828
-1.14337 1.98277 -9.51828
-1.23639 1.96254 -9.42116
-1.25733 1.96254 -9.42116
-1.27178 1.95258 -9.37334
-1.29262 1.95258 -9.37334
-1.32754 1.94272 -9.326
-1.25105 1.77534 -8.52252
-1.47922 1.89798 -9.11125
-1.49947 1.89798 -9.11125
-1.52474 1.90425 -9.14132
-2.07248 1.8317 -8.79308
-2.13187 1.84932 -8.87763
-2.2031 1.87638 -9.00755
-2.26524 1.89487 -9.09629
-2.28546 1.89487 -9.09629
-2.30568 1.89487 -9.09629
-2.31449 1.88558 -9.0517
-2.33461 1.88558 -9.0517
-2.40676 1.89487 -9.09629
-2.45531 1.88558 -9.0517
-2.47543 1.88558 -9.0517
-2.52026 1.90425 -9.14132
-2.54057 1.90425 -9.14132
-2.56089 1.90425 -9.14132
-2.54343 1.87638 -9.00755
-2.56345 1.87638 -9.00755
-2.74374 1.90425 -9.14132
-2.77781 1.91372 -9.1868
-2.90281 1.94272 -9.326
-2.9743 1.96254 -9.42116
-7.78078 4.47277 -21.4715
-7.48057 4.27398 -20.5172
-7.48856 4.22701 -20.2917
-7.53366 4.22701 -20.2917
-7.57876 4.22701 -20.2917
-7.70857 4.27398 -20.5172
-7.84129 4.322 -20.7477
-7.8874 4.322 -20.7477
-7.84537 4.27398 -20.5172
-7.80425 4.22701 -20.2917
-8.30571 4.47277 -21.4715
-8.97994 4.80822 -23.0818
-8.02777 4.27398 -20.5172
-8.11994 4.22701 -20.2917
-8.07629 4.18106 -20.0712
-8.1209 4.18106 -20.0712
-8.47248 4.33825 -20.8257
-8.48376 4.27398 -20.5172
-8.49471 4.21158 -20.2177
-8.86312 4.37111 -20.9835
-8.80965 4.322 -20.7477
-8.85576 4.322 -20.7477
-8.80296 4.27398 -20.5172
-8.84856 4.27398 -20.5172
-8.9941 4.322 -20.7477
-8.98536 4.27398 -20.5172
-9.12216 4.27398 -20.5172
-9.16776 4.27398 -20.5172
-9.21336 4.27398 -20.5172
-9.25896 4.27398 -20.5172
-9.30456 4.27398 -20.5172
-9.48696 4.27398 -20.5172
-9.53256 4.27398 -20.5172
-9.4729 4.22701 -20.2917
-9.518 4.22701 -20.2917
-9.85176 4.27398 -20.5172
-9.89736 4.27398 -20.5172
-9.94296 4.27398 -20.5172
-10.333 4.42136 -21.2247
-10.542 4.37111 -20.9835
-2.09742 0.843548 -4.04945
-10.6726 4.27398 -20.5172
3.17333 4.5304 -21.9827
3.16212 4.58499 -22.2476
2.97791 4.5304 -21.9827
2.95248 4.56665 -22.1586
2.90323 4.56665 -22.1586
2.71777 4.42505 -21.4715
2.58705 4.5304 -21.9827
2.00196 4.42505 -21.4715
1.81108 4.42505 -21.4715
1.7841 4.47711 -21.7241
1.62019 4.42505 -21.4715
1.57247 4.42505 -21.4715
1.52475 4.42505 -21.4715
1.38159 4.42505 -21.4715
1.31854 4.37418 -21.2247
1.27137 4.37418 -21.2247
1.21028 4.32448 -20.9835
1.16365 4.32448 -20.9835
1.11701 4.32448 -20.9835
1.07037 4.32448 -20.9835
1.01159 4.47711 -21.7241
0.963306 4.47711 -21.7241
0.915024 4.47711 -21.7241
0.837194 4.32448 -20.9835
0.761222 4.42505 -21.4715
-0.986891 2.03143 -9.85701
-1.00167 2.01707 -9.78735
-1.03784 2.00292 -9.71867
-1.09687 1.99243 -9.66779
-1.11835 1.99243 -9.66779
-1.1339 1.98205 -9.61743
-1.15528 1.98205 -9.61743
-1.21546 1.9416 -9.42116
-1.23639 1.9416 -9.42116
-1.25733 1.9416 -9.42116
-1.33654 1.93502 -9.38922
-1.52474 1.88393 -9.14132
-2.13187 1.82959 -8.87763
-2.17249 1.84735 -8.96382
-2.19953 1.85335 -8.99292
-2.26897 1.87773 -9.11125
-2.28546 1.87465 -9.09629
-2.30568 1.87465 -9.09629
-2.31449 1.86546 -9.0517
-2.39836 1.88393 -9.14132
-2.41867 1.88393 -9.14132
-2.42698 1.87465 -9.09629
-2.44719 1.87465 -9.09629
-2.45531 1.86546 -9.0517
-2.47543 1.86546 -9.0517
-2.54828 1.87465 -9.09629
-2.58121 1.88393 -9.14132
-2.61625 1.86546 -9.0517
-2.77781 1.8933 -9.1868
-2.85326 1.90277 -9.23274
-2.87378 1.90277 -9.23274
-2.94426 1.92199 -9.326
-4.28941 2.43945 -11.8368
-7.52617 4.22838 -20.5172
-7.51609 4.19729 -20.3663
-7.53366 4.18191 -20.2917
-7.57876 4.18191 -20.2917
-7.70857 4.22838 -20.5172
-7.69715 4.19729 -20.3663
