VERSION 0.7
FIELDS x y z
SIZE 4 4 4
TYPE F F F
COUNT 1 1 1
WIDTH 1885
HEIGHT 1
VIEWPOINT 0 0 0 1 0 0 0
POINTS 1885
DATA ascii
3.31991 4.67697 -21.9827
3.27105 4.67697 -21.9827
3.22219 4.67697 -21.9827
3.17333 4.67697 -21.9827
3.08772 4.62195 -21.7241
3.03944 4.62195 -21.7241
2.95637 4.56821 -21.4715
2.90865 4.56821 -21.4715
2.89459 4.62195 -21.7241
2.84631 4.62195 -21.7241
2.76549 4.56821 -21.4715
2.74974 4.62195 -21.7241
2.70146 4.62195 -21.7241
2.65318 4.62195 -21.7241
2.57461 4.56821 -21.4715
2.51821 4.64015 -21.8096
2.38373 4.56821 -21.4715
2.336 4.56821 -21.4715
2.26198 4.5157 -21.2247
2.21481 4.5157 -21.2247
2.19284 4.56821 -21.4715
2.1962 4.67697 -21.9827
2.0974 4.56821 -21.4715
2.04968 4.56821 -21.4715
2.00196 4.56821 -21.4715
1.95424 4.56821 -21.4715
1.8846 4.5157 -21.2247
1.83743 4.5157 -21.2247
1.81108 4.56821 -21.4715
1.76336 4.56821 -21.4715
1.69592 4.5157 -21.2247
1.64874 4.5157 -21.2247
1.53674 4.46439 -20.9835
1.48448 4.44754 -20.9043
1.43802 4.44754 -20.9043
1.46334 4.67697 -21.9827
1.38159 4.56821 -21.4715
1.33906 4.58598 -21.555
1.19071 4.56821 -21.4715
1.14299 4.56821 -21.4715
1.09527 4.56821 -21.4715
1.04755 4.56821 -21.4715
0.999825 4.56821 -21.4715
0.941161 4.5157 -21.2247
0.893989 4.5157 -21.2247
0.837194 4.46439 -20.9835
0.790558 4.46439 -20.9835
0.697285 4.46439 -20.9835
0.650649 4.46439 -20.9835
0.604013 4.46439 -20.9835
0.464105 4.46439 -20.9835
0.417469 4.46439 -20.9835
0.370832 4.46439 -20.9835
0.331736 4.56821 -21.4715
0.284015 4.56821 -21.4715
0.236294 4.56821 -21.4715
0.0889931 4.36518 -20.5172
0.0433933 4.36518 -20.5172
-1.40891 2.2841 -10.7357
-1.53424 2.25785 -10.6123
-1.58141 2.25785 -10.6123
-1.61427 2.2709 -10.6737
-1.64273 2.24495 -10.5517
-1.66618 2.24495 -10.5517
-1.68003 2.23219 -10.4917
-1.71308 2.24495 -10.5517
-1.73653 2.24495 -10.5517
-1.79368 2.25785 -10.6123
-1.79662 2.23219 -10.4917
-1.81994 2.23219 -10.4917
-1.84326 2.23219 -10.4917
-1.86657 2.23219 -10.4917
-1.87921 2.21958 -10.4325
-1.9024 2.21958 -10.4325
-1.92559 2.21958 -10.4325
-1.95985 2.23219 -10.4917
-1.96088 2.20711 -10.3739
-1.98394 2.20711 -10.3739
-2.01833 2.21958 -10.4325
-2.05312 2.23219 -10.4917
-2.07616 2.20711 -10.3739
-2.09922 2.20711 -10.3739
-2.13025 2.21541 -10.4129
-2.14533 2.20711 -10.3739
-2.16839 2.20711 -10.3739
-2.19144 2.20711 -10.3739
-2.2145 2.20711 -10.3739
-2.23755 2.20711 -10.3739
-2.23549 2.18259 -10.2586
-2.27091 2.19478 -10.3159
-2.30672 2.20711 -10.3739
-2.35283 2.20711 -10.3739
-2.44506 2.20711 -10.3739
-2.5428 2.23219 -10.4917
-2.56612 2.23219 -10.4917
-2.63939 2.21541 -10.4129
-2.95229 2.20711 -10.3739
-2.97535 2.20711 -10.3739
-3.09671 2.24495 -10.5517
-3.12016 2.24495 -10.5517
-7.11577 4.36518 -20.5172
-7.16137 4.36518 -20.5172
-7.15398 4.33308 -20.3663
-7.11374 4.25487 -19.9987
-7.15819 4.25487 -19.9987
-7.38937 4.36518 -20.5172
-7.43497 4.36518 -20.5172
-7.48057 4.36518 -20.5172
-7.36256 4.27028 -20.0712
-8.85012 5.10215 -23.9811
-8.49872 4.87024 -22.8911
-8.54959 4.87024 -22.8911
-7.70857 4.36518 -20.5172
-7.66896 4.31721 -20.2917
-7.71406 4.31721 -20.2917
-7.76403 4.27028 -20.0712
-7.80864 4.27028 -20.0712
-8.02777 4.36518 -20.5172
-8.16408 4.41422 -20.7477
-10.4563 5.55942 -26.1304
-8.25576 4.36518 -20.5172
-8.34696 4.36518 -20.5172
-8.48376 4.36518 -20.5172
-8.52936 4.36518 -20.5172
-8.57496 4.36518 -20.5172
-8.55718 4.33308 -20.3663
-8.66616 4.36518 -20.5172
-8.71176 4.36518 -20.5172
-8.72505 4.34907 -20.4415
-8.77048 4.34907 -20.4415
-8.84856 4.36518 -20.5172
-8.89416 4.36518 -20.5172
-8.84152 4.31721 -20.2917
-8.88662 4.31721 -20.2917
-9.03096 4.36518 -20.5172
-8.96846 4.27028 -20.0712
-9.21336 4.36518 -20.5172
-9.36299 4.41422 -20.7477
-9.40911 4.41422 -20.7477
-9.56266 4.46439 -20.9835
-9.50133 4.41422 -20.7477
-9.54744 4.41422 -20.7477
-9.74921 4.46439 -20.9835
-9.79584 4.46439 -20.9835
-9.88912 4.46439 -20.9835
-9.93575 4.46439 -20.9835
-9.91634 4.41422 -20.7477
-10.0757 4.46439 -20.9835
-10.1223 4.46439 -20.9835
-10.2156 4.46439 -20.9835
-10.3802 4.5157 -21.2247
-10.4273 4.5157 -21.2247
-10.4745 4.5157 -21.2247
-10.4021 4.46439 -20.9835
-10.5285 4.49846 -21.1437
-10.8349 4.56821 -21.4715
-10.7575 4.5157 -21.2247
-10.8047 4.5157 -21.2247
-10.8519 4.5157 -21.2247
6.82038 4.85952 -23.0818
6.76908 4.85952 -23.0818
6.56388 4.85952 -23.0818
6.2036 4.741 -22.5189
6.25526 4.81936 -22.8911
6.20438 4.81936 -22.8911
6.15349 4.85952 -23.0818
6.05176 4.81936 -22.8911
5.82419 4.79953 -22.7969
5.77352 4.79953 -22.7969
5.65306 4.741 -22.5189
5.60301 4.741 -22.5189
5.55297 4.741 -22.5189
5.50292 4.741 -22.5189
5.52019 4.79953 -22.7969
5.30272 4.741 -22.5189
5.31752 4.79953 -22.7969
5.26686 4.79953 -22.7969
4.95183 4.64656 -22.0703
4.90278 4.64656 -22.0703
4.95238 4.741 -22.5189
4.6879 4.62812 -21.9827
4.69493 4.68388 -22.2476
4.64549 4.68388 -22.2476
4.65209 4.741 -22.5189
4.60204 4.741 -22.5189
4.55199 4.741 -22.5189
4.44771 4.68388 -22.2476
4.39826 4.68388 -22.2476
4.34881 4.68388 -22.2476
4.40553 4.79953 -22.7969
4.2517 4.741 -22.5189
4.08518 4.66514 -22.1586
4.05214 4.68388 -22.2476
4.0027 4.68388 -22.2476
3.82696 4.59168 -21.8096
3.75962 4.62812 -21.9827
3.71076 4.62812 -21.9827
3.63307 4.59168 -21.8096
3.61305 4.62812 -21.9827
3.56419 4.62812 -21.9827
3.51533 4.62812 -21.9827
3.29042 4.52049 -21.4715
3.28085 4.57367 -21.7241
3.19498 4.52049 -21.4715
3.17333 4.62812 -21.9827
3.12448 4.62812 -21.9827
2.95637 4.52049 -21.4715
2.90865 4.52049 -21.4715
2.89459 4.57367 -21.7241
2.84631 4.57367 -21.7241
2.76549 4.52049 -21.4715
2.57461 4.52049 -21.4715
2.51821 4.59168 -21.8096
2.46974 4.59168 -21.8096
2.38373 4.52049 -21.4715
2.336 4.52049 -21.4715
2.26198 4.46853 -21.2247
2.21481 4.46853 -21.2247
2.19284 4.52049 -21.4715
2.14512 4.52049 -21.4715
2.07329 4.46853 -21.2247
2.02612 4.46853 -21.2247
2.00196 4.52049 -21.4715
1.95424 4.52049 -21.4715
1.86319 4.41775 -20.9835
1.81655 4.41775 -20.9835
1.8396 4.59168 -21.8096
1.80534 4.62812 -21.9827
1.73582 4.57367 -21.7241
1.68754 4.57367 -21.7241
1.62019 4.52049 -21.4715
1.57247 4.52049 -21.4715
1.52475 4.52049 -21.4715
1.47703 4.52049 -21.4715
1.46334 4.62812 -21.9827
1.38159 4.52049 -21.4715
1.33906 4.53808 -21.555
1.29115 4.53808 -21.555
1.23843 4.52049 -21.4715
1.19071 4.52049 -21.4715
1.14299 4.52049 -21.4715
1.09527 4.52049 -21.4715
1.04755 4.52049 -21.4715
0.999825 4.52049 -21.4715
0.941161 4.46853 -21.2247
0.893989 4.46853 -21.2247
0.837194 4.41775 -20.9835
0.790558 4.41775 -20.9835
0.743921 4.41775 -20.9835
0.697285 4.41775 -20.9835
0.658128 4.46853 -21.2247
0.61806 4.52049 -21.4715
0.561632 4.45147 -21.1437
0.51464 4.45147 -21.1437
0.464105 4.41775 -20.9835
0.417469 4.41775 -20.9835
0.370832 4.41775 -20.9835
0.284015 4.52049 -21.4715
0.230924 4.41775 -20.9835
0.0889931 4.31958 -20.5172
-1.40891 2.26024 -10.7357
-1.51065 2.23426 -10.6123
-1.58141 2.23426 -10.6123
-1.61427 2.24718 -10.6737
-1.62858 2.23426 -10.6123
-1.64273 2.2215 -10.5517
-1.66618 2.2215 -10.5517
-1.68963 2.2215 -10.5517
-1.72293 2.23426 -10.6123
-1.74651 2.23426 -10.6123
-1.75998 2.2215 -10.5517
-1.79368 2.23426 -10.6123
-1.80689 2.2215 -10.5517
-1.83034 2.2215 -10.5517
-1.84326 2.20887 -10.4917
-1.86657 2.20887 -10.4917
-1.91477 2.18406 -10.3739
-1.93782 2.18406 -10.3739
-1.96088 2.18406 -10.3739
-1.98394 2.18406 -10.3739
-2.0298 2.20887 -10.4917
-2.05312 2.20887 -10.4917
-2.13025 2.19227 -10.4129
-2.14533 2.18406 -10.3739
-2.16839 2.18406 -10.3739
-2.19144 2.18406 -10.3739
-2.2145 2.18406 -10.3739
-2.23755 2.18406 -10.3739
-2.23549 2.15979 -10.2586
-2.27091 2.17185 -10.3159
-2.30672 2.18406 -10.3739
-2.32978 2.18406 -10.3739
-2.35283 2.18406 -10.3739
-2.40847 2.17185 -10.3159
-2.44506 2.18406 -10.3739
-2.49616 2.20887 -10.4917
-2.51948 2.20887 -10.4917
-2.51423 2.18406 -10.3739
-2.53728 2.18406 -10.3739
-2.58943 2.20887 -10.4917
-2.59799 2.19639 -10.4325
-2.62118 2.19639 -10.4325
-2.61482 2.17185 -10.3159
-2.66755 2.19639 -10.4325
-2.70602 2.20887 -10.4917
-2.69867 2.18406 -10.3739
-2.75266 2.20887 -10.4917
-2.76342 2.19888 -10.4443
-2.78663 2.19888 -10.4443
-2.7909 2.18406 -10.3739
-2.82116 2.17185 -10.3159
-2.95229 2.18406 -10.3739
-2.97535 2.18406 -10.3739
-6.78265 4.22567 -20.0712
-7.07017 4.31958 -20.5172
-7.03758 4.27211 -20.2917
-7.08267 4.27211 -20.2917
-7.25257 4.31958 -20.5172
-7.21797 4.27211 -20.2917
-7.26307 4.27211 -20.2917
-7.33504 4.28782 -20.3663
-7.43497 4.31958 -20.5172
-7.48057 4.31958 -20.5172
-7.40716 4.22567 -20.0712
-7.47887 4.24104 -20.1441
-7.52364 4.24104 -20.1441
-7.70857 4.31958 -20.5172
-7.67482 4.22567 -20.0712
-7.89097 4.31958 -20.5172
-7.93657 4.31958 -20.5172
-10.4563 5.50135 -26.1304
-8.25576 4.31958 -20.5172
-8.30136 4.31958 -20.5172
-8.34696 4.31958 -20.5172
-8.39256 4.31958 -20.5172
-8.34544 4.27211 -20.2917
-8.39054 4.27211 -20.2917
-8.46665 4.28782 -20.3663
-8.57496 4.31958 -20.5172
-8.62056 4.31958 -20.5172
-8.79648 4.38453 -20.8257
-8.6562 4.22567 -20.0712
-8.9941 4.36811 -20.7477
-9.14294 4.41775 -20.9835
-8.98536 4.31958 -20.5172
-9.17854 4.36811 -20.7477
-9.22466 4.36811 -20.7477
-9.16776 4.31958 -20.5172
-9.21336 4.31958 -20.5172
-9.15721 4.27211 -20.2917
-9.20231 4.27211 -20.2917
-9.48696 4.31958 -20.5172
-9.53256 4.31958 -20.5172
-9.57816 4.31958 -20.5172
-9.88912 4.41775 -20.9835
-9.93575 4.41775 -20.9835
-9.87023 4.36811 -20.7477
-9.91634 4.36811 -20.7477
-10.0757 4.41775 -20.9835
-10.0462 4.38453 -20.8257
-10.2156 4.41775 -20.9835
-10.3802 4.46853 -21.2247
-10.4273 4.46853 -21.2247
-10.4745 4.46853 -21.2247
-10.4021 4.41775 -20.9835
-10.5285 4.45147 -21.1437
-10.3775 4.36811 -20.7477
-10.4236 4.36811 -20.7477
-10.8349 4.52049 -21.4715
-10.7575 4.46853 -21.2247
-10.8047 4.46853 -21.2247
-10.8991 4.46853 -21.2247
-10.9462 4.46853 -21.2247
-10.9151 4.41775 -20.9835
6.87168 4.80822 -23.0818
6.82038 4.80822 -23.0818
6.76908 4.80822 -23.0818
6.55394 4.69095 -22.5189
6.56388 4.80822 -23.0818
6.25526 4.76849 -22.8911
6.15349 4.80822 -23.0818
6.10219 4.80822 -23.0818
6.05089 4.80822 -23.0818
5.68384 4.63443 -22.2476
5.6344 4.63443 -22.2476
5.58495 4.63443 -22.2476
5.60301 4.69095 -22.5189
5.55297 4.69095 -22.5189
5.50292 4.69095 -22.5189
5.45287 4.69095 -22.5189
5.23883 4.63443 -22.2476
5.38399 4.80822 -23.0818
4.95183 4.59751 -22.0703
4.89272 4.63443 -22.2476
4.79382 4.63443 -22.2476
4.74438 4.63443 -22.2476
4.63904 4.57926 -21.9827
4.59018 4.57926 -21.9827
4.65209 4.69095 -22.5189
4.60204 4.69095 -22.5189
4.55199 4.69095 -22.5189
4.44771 4.63443 -22.2476
4.39826 4.63443 -22.2476
4.29704 4.57926 -21.9827
4.3518 4.69095 -22.5189
4.15103 4.63443 -22.2476
4.05214 4.63443 -22.2476
4.0027 4.63443 -22.2476
3.82696 4.5432 -21.8096
3.77849 4.5432 -21.8096
3.67218 4.47277 -21.4715
3.6671 4.52539 -21.7241
3.57674 4.47277 -21.4715
3.61305 4.57926 -21.9827
3.56419 4.57926 -21.9827
3.51533 4.57926 -21.9827
3.42569 4.52539 -21.7241
3.37741 4.52539 -21.7241
3.29042 4.47277 -21.4715
3.2427 4.47277 -21.4715
3.19498 4.47277 -21.4715
3.17333 4.57926 -21.9827
3.05182 4.47277 -21.4715
3.00409 4.47277 -21.4715
2.95637 4.47277 -21.4715
2.89459 4.52539 -21.7241
2.84631 4.52539 -21.7241
2.76549 4.47277 -21.4715
2.67005 4.47277 -21.4715
2.54502 4.42136 -21.2247
2.50833 4.52539 -21.7241
2.46005 4.52539 -21.7241
2.38373 4.47277 -21.4715
2.336 4.47277 -21.4715
2.19284 4.47277 -21.4715
1.98656 4.43836 -21.3063
1.95424 4.47277 -21.4715
1.80534 4.57926 -21.9827
1.73582 4.52539 -21.7241
1.68754 4.52539 -21.7241
1.62019 4.47277 -21.4715
1.57247 4.47277 -21.4715
1.52475 4.47277 -21.4715
1.47703 4.47277 -21.4715
1.42931 4.47277 -21.4715
1.38159 4.47277 -21.4715
1.31854 4.42136 -21.2247
1.27137 4.42136 -21.2247
1.21028 4.37111 -20.9835
1.16365 4.37111 -20.9835
1.11701 4.37111 -20.9835
1.07037 4.37111 -20.9835
1.02374 4.37111 -20.9835
0.999825 4.47277 -21.4715
0.941161 4.42136 -21.2247
0.893989 4.42136 -21.2247
0.837194 4.37111 -20.9835
0.752472 4.42136 -21.2247
0.713501 4.47277 -21.4715
0.665781 4.47277 -21.4715
0.61806 4.47277 -21.4715
0.51464 4.40448 -21.1437
0.464105 4.37111 -20.9835
0.417469 4.37111 -20.9835
0.370832 4.37111 -20.9835
0.324196 4.37111 -20.9835
0.27756 4.37111 -20.9835
0.230924 4.37111 -20.9835
0.182217 4.322 -20.7477
0.136105 4.322 -20.7477
0.089993 4.322 -20.7477
-0.913221 2.37443 -11.3984
-0.927109 2.34548 -11.2594
-1.42549 2.26269 -10.862
-1.50436 2.23638 -10.7357
-1.55782 2.21068 -10.6123
-1.65217 2.21068 -10.6123
-1.67575 2.21068 -10.6123
-1.69934 2.21068 -10.6123
-1.72293 2.21068 -10.6123
-1.80689 2.19805 -10.5517
-1.83034 2.19805 -10.5517
-1.84326 2.18556 -10.4917
-1.86657 2.18556 -10.4917
-1.87921 2.17321 -10.4325
-1.9024 2.17321 -10.4325
-1.92559 2.17321 -10.4325
-1.95985 2.18556 -10.4917
-1.98316 2.18556 -10.4917
-2.00648 2.18556 -10.4917
-2.07616 2.161 -10.3739
-2.09922 2.161 -10.3739
-2.14533 2.161 -10.3739
-2.16839 2.161 -10.3739
-2.20798 2.17731 -10.4522
-2.26061 2.161 -10.3739
-2.28367 2.161 -10.3739
-2.30672 2.161 -10.3739
-2.32978 2.161 -10.3739
-2.36262 2.14893 -10.3159
-2.38554 2.14893 -10.3159
-2.46811 2.161 -10.3739
-2.49117 2.161 -10.3739
-2.51423 2.161 -10.3739
-2.53728 2.161 -10.3739
-2.58943 2.18556 -10.4917
-2.59799 2.17321 -10.4325
-2.62118 2.17321 -10.4325
-2.62951 2.161 -10.3739
-2.7345 2.22775 -10.6943
-2.67562 2.161 -10.3739
-2.69867 2.161 -10.3739
-2.75266 2.18556 -10.4917
-2.76342 2.17567 -10.4443
-2.78663 2.17567 -10.4443
-2.7909 2.161 -10.3739
-2.85842 2.17731 -10.4522
-2.9392 2.18556 -10.4917
-2.95229 2.161 -10.3739
-6.78265 4.18106 -20.0712
-7.02457 4.27398 -20.5172
-7.07017 4.27398 -20.5172
-7.03758 4.22701 -20.2917
-7.08267 4.22701 -20.2917
-7.0503 4.18106 -20.0712
-7.09491 4.18106 -20.0712
-7.06274 4.13611 -19.8553
-7.10687 4.13611 -19.8553
-7.33504 4.24255 -20.3663
-7.43497 4.27398 -20.5172
-7.48057 4.27398 -20.5172
-7.40716 4.18106 -20.0712
-7.47887 4.19627 -20.1441
-7.52364 4.19627 -20.1441
-7.70857 4.27398 -20.5172
-7.84129 4.322 -20.7477
-7.8874 4.322 -20.7477
-7.84537 4.27398 -20.5172
-7.80425 4.22701 -20.2917
-7.84935 4.22701 -20.2917
-8.02777 4.27398 -20.5172
-8.16457 4.27398 -20.5172
-8.11994 4.22701 -20.2917
-8.16504 4.22701 -20.2917
-8.30136 4.27398 -20.5172
-8.34696 4.27398 -20.5172
-8.43563 4.22701 -20.2917
-8.57496 4.27398 -20.5172
-8.6849 4.30587 -20.6703
-8.66616 4.27398 -20.5172
-8.85576 4.322 -20.7477
-8.90187 4.322 -20.7477
-8.84856 4.27398 -20.5172
-8.89416 4.27398 -20.5172
-8.93976 4.27398 -20.5172
-8.98536 4.27398 -20.5172
-9.13243 4.322 -20.7477
-9.17854 4.322 -20.7477
-9.22466 4.322 -20.7477
-9.16776 4.27398 -20.5172
-9.21336 4.27398 -20.5172
-9.25896 4.27398 -20.5172
-9.48696 4.27398 -20.5172
-9.53256 4.27398 -20.5172
-9.57816 4.27398 -20.5172
-9.85176 4.27398 -20.5172
-9.89736 4.27398 -20.5172
-10.1689 4.37111 -20.9835
-10.333 4.42136 -21.2247
-10.171 4.27398 -20.5172
-10.4487 4.37111 -20.9835
-10.4954 4.37111 -20.9835
-10.542 4.37111 -20.9835
-10.5887 4.37111 -20.9835
-10.5158 4.322 -20.7477
-10.5619 4.322 -20.7477
-10.7286 4.37111 -20.9835
-10.7752 4.37111 -20.9835
-10.7002 4.322 -20.7477
-10.7464 4.322 -20.7477
-10.6726 4.27398 -20.5172
6.30739 4.75692 -23.0818
6.0034 4.6409 -22.5189
6.02685 4.6982 -22.7969
6.05089 4.75692 -23.0818
5.99959 4.75692 -23.0818
5.94829 4.75692 -23.0818
5.82419 4.6982 -22.7969
5.77352 4.6982 -22.7969
5.65306 4.6409 -22.5189
5.60301 4.6409 -22.5189
5.55297 4.6409 -22.5189
5.50292 4.6409 -22.5189
5.45287 4.6409 -22.5189
5.43529 4.75692 -23.0818
5.38399 4.75692 -23.0818
5.10253 4.6409 -22.5189
5.05248 4.6409 -22.5189
5.00243 4.6409 -22.5189
4.79382 4.58499 -22.2476
4.74438 4.58499 -22.2476
4.63904 4.5304 -21.9827
4.59018 4.5304 -21.9827
4.54133 4.5304 -21.9827
4.49247 4.5304 -21.9827
4.44361 4.5304 -21.9827
4.44771 4.58499 -22.2476
4.29704 4.5304 -21.9827
4.15103 4.58499 -22.2476
4.15161 4.6409 -22.5189
4.05214 4.58499 -22.2476
4.0027 4.58499 -22.2476
4.00146 4.6409 -22.5189
3.9038 4.58499 -22.2476
3.85436 4.58499 -22.2476
3.75962 4.5304 -21.9827
3.70602 4.58499 -22.2476
3.56419 4.5304 -21.9827
3.42569 4.47711 -21.7241
3.37741 4.47711 -21.7241
3.31612 4.45962 -21.6392
3.31991 4.5304 -21.9827
3.17333 4.5304 -21.9827
3.05182 4.42505 -21.4715
3.00409 4.42505 -21.4715
2.95637 4.42505 -21.4715
2.89459 4.47711 -21.7241
2.84631 4.47711 -21.7241
2.76549 4.42505 -21.4715
2.71777 4.42505 -21.4715
2.67005 4.42505 -21.4715
2.59219 4.37418 -21.2247
2.54502 4.37418 -21.2247
2.52689 4.42505 -21.4715
2.50833 4.47711 -21.7241
2.46005 4.47711 -21.7241
2.38373 4.42505 -21.4715
2.31521 4.47711 -21.7241
2.24505 4.5304 -21.9827
2.1962 4.5304 -21.9827
2.12208 4.47711 -21.7241
2.07379 4.47711 -21.7241
1.95424 4.42505 -21.4715
1.90305 4.5304 -21.9827
1.81108 4.42505 -21.4715
1.7841 4.47711 -21.7241
1.62019 4.42505 -21.4715
1.57247 4.42505 -21.4715
1.52475 4.42505 -21.4715
1.42931 4.42505 -21.4715
1.38159 4.42505 -21.4715
1.31854 4.37418 -21.2247
1.27137 4.37418 -21.2247
1.16365 4.32448 -20.9835
1.11701 4.32448 -20.9835
1.07855 4.35749 -21.1437
0.988333 4.37418 -21.2247
0.941161 4.37418 -21.2247
0.893989 4.37418 -21.2247
0.837194 4.32448 -20.9835
0.752472 4.37418 -21.2247
0.713501 4.42505 -21.4715
0.665781 4.42505 -21.4715
0.61806 4.42505 -21.4715
0.563784 4.37418 -21.2247
0.516611 4.37418 -21.2247
0.464105 4.32448 -20.9835
0.417469 4.32448 -20.9835
0.324196 4.32448 -20.9835
0.27756 4.32448 -20.9835
0.234477 4.39101 -21.3063
0.0889931 4.22838 -20.5172
-1.42549 2.23855 -10.862
-1.45664 2.21252 -10.7357
-1.4805 2.21252 -10.7357
-1.50436 2.21252 -10.7357
-1.53424 2.18709 -10.6123
-1.55782 2.18709 -10.6123
-1.58141 2.18709 -10.6123
-1.605 2.18709 -10.6123
-1.62858 2.18709 -10.6123
-1.64273 2.17459 -10.5517
-1.66618 2.17459 -10.5517
-1.68003 2.16224 -10.4917
-1.70335 2.16224 -10.4917
-1.71691 2.15002 -10.4325
-1.7401 2.15002 -10.4325
-1.7733 2.16224 -10.4917
-1.79662 2.16224 -10.4917
-1.91477 2.13794 -10.3739
-1.94877 2.15002 -10.4325
-1.97196 2.15002 -10.4325
-2.05312 2.16224 -10.4917
-2.0647 2.15002 -10.4325
-2.08789 2.15002 -10.4325
-2.09922 2.13794 -10.3739
-2.12227 2.13794 -10.3739
-2.14533 2.13794 -10.3739
-2.18475 2.15408 -10.4522
-2.21634 2.16224 -10.4917
-2.22701 2.15002 -10.4325
-2.2502 2.15002 -10.4325
-2.26061 2.13794 -10.3739
-2.28367 2.13794 -10.3739
-2.30672 2.13794 -10.3739
-2.34294 2.15002 -10.4325
-2.37957 2.16224 -10.4917
-2.40847 2.126 -10.3159
-2.44506 2.13794 -10.3739
-2.4589 2.12997 -10.3352
-2.49117 2.13794 -10.3739
-2.52843 2.15002 -10.4325
-2.55643 2.15408 -10.4522
-2.58943 2.16224 -10.4917
-2.59799 2.15002 -10.4325
-2.62118 2.15002 -10.4325
-2.62951 2.13794 -10.3739
-2.67562 2.13794 -10.3739
-2.72418 2.15815 -10.4719
-2.75266 2.16224 -10.4917
-2.76342 2.15245 -10.4443
-2.85842 2.15408 -10.4522
-2.9392 2.16224 -10.4917
-7.07017 4.22838 -20.5172
-7.03758 4.18191 -20.2917
-7.08267 4.18191 -20.2917
-7.0503 4.13646 -20.0712
-7.09491 4.13646 -20.0712
-7.06274 4.09198 -19.8553
-7.10687 4.09198 -19.8553
-7.38937 4.22838 -20.5172
-7.52617 4.22838 -20.5172
-7.51609 4.19729 -20.3663
-7.53366 4.18191 -20.2917
-7.57876 4.18191 -20.2917
-7.70857 4.22838 -20.5172
-7.75417 4.22838 -20.5172
-7.67482 4.13646 -20.0712
-7.71942 4.13646 -20.0712
-7.76403 4.13646 -20.0712
-4.57278 2.40857 -11.687
-8.07337 4.22838 -20.5172
-8.21019 4.27589 -20.7477
-8.2563 4.27589 -20.7477
-8.03168 4.13646 -20.0712
-8.25576 4.22838 -20.5172
-8.5833 4.32448 -20.9835
-8.53297 4.27589 -20.7477
-8.57909 4.27589 -20.7477
-8.52936 4.22838 -20.5172
-8.57496 4.22838 -20.5172
-8.62056 4.22838 -20.5172
-8.71176 4.22838 -20.5172
-8.75736 4.22838 -20.5172
-8.80296 4.22838 -20.5172
-8.75132 4.18191 -20.2917
-8.70081 4.13646 -20.0712
-8.98536 4.22838 -20.5172
-9.13243 4.27589 -20.7477
-9.17854 4.27589 -20.7477
-9.22466 4.27589 -20.7477
-9.16776 4.22838 -20.5172
-9.21336 4.22838 -20.5172
-9.25896 4.22838 -20.5172
-9.30456 4.22838 -20.5172
-9.45522 4.27589 -20.7477
-9.6093 4.32448 -20.9835
-9.38271 4.18191 -20.2917
-9.74921 4.32448 -20.9835
-9.79584 4.32448 -20.9835
-9.86105 4.29196 -20.8257
-9.98239 4.32448 -20.9835
-10.029 4.32448 -20.9835
-10.0757 4.32448 -20.9835
-10.1223 4.32448 -20.9835
-10.4273 4.37418 -21.2247
-10.4745 4.37418 -21.2247
-10.4021 4.32448 -20.9835
-10.4487 4.32448 -20.9835
-10.4954 4.32448 -20.9835
-10.542 4.32448 -20.9835
-10.7575 4.37418 -21.2247
-10.8047 4.37418 -21.2247
-11.0258 4.42505 -21.4715
-10.9883 4.39101 -21.3063
-10.9151 4.32448 -20.9835
6.46129 4.70562 -23.0818
6.33085 4.64753 -22.7969
6.28018 4.64753 -22.7969
6.46911 4.82628 -23.6737
6.0034 4.59085 -22.5189
5.95335 4.59085 -22.5189
5.9033 4.59085 -22.5189
5.94829 4.70562 -23.0818
5.82419 4.64753 -22.7969
5.77352 4.64753 -22.7969
5.74309 4.70562 -23.0818
5.69179 4.70562 -23.0818
5.50292 4.59085 -22.5189
5.40282 4.59085 -22.5189
5.30272 4.59085 -22.5189
5.25267 4.59085 -22.5189
5.20263 4.59085 -22.5189
5.15258 4.59085 -22.5189
5.10253 4.59085 -22.5189
5.05248 4.59085 -22.5189
5.00243 4.59085 -22.5189
4.95238 4.59085 -22.5189
4.90233 4.59085 -22.5189
4.85229 4.59085 -22.5189
4.49247 4.48155 -21.9827
4.44361 4.48155 -21.9827
4.29477 4.42882 -21.7241
4.24649 4.42882 -21.7241
4.3518 4.59085 -22.5189
4.24992 4.53554 -22.2476
4.20048 4.53554 -22.2476
4.10162 4.48155 -21.9827
4.05276 4.48155 -21.9827
4.0039 4.48155 -21.9827
3.95504 4.48155 -21.9827
3.95325 4.53554 -22.2476
3.85733 4.48155 -21.9827
3.75962 4.48155 -21.9827
3.6619 4.48155 -21.9827
3.61305 4.48155 -21.9827
3.56419 4.48155 -21.9827
3.55769 4.53554 -22.2476
3.31612 4.41152 -21.6392
3.31991 4.48155 -21.9827
3.23257 4.42882 -21.7241
3.18428 4.42882 -21.7241
3.17333 4.48155 -21.9827
3.12448 4.48155 -21.9827
2.93138 4.41152 -21.6392
3.00049 4.59085 -22.5189
2.78248 4.48155 -21.9827
2.73362 4.48155 -21.9827
2.65318 4.42882 -21.7241
2.6049 4.42882 -21.7241
2.58705 4.48155 -21.9827
2.50833 4.42882 -21.7241
2.46005 4.42882 -21.7241
2.38373 4.37733 -21.4715
2.336 4.37733 -21.4715
2.31521 4.42882 -21.7241
2.24505 4.48155 -21.9827
2.1962 4.48155 -21.9827
2.12208 4.42882 -21.7241
2.07379 4.42882 -21.7241
2.00196 4.37733 -21.4715
1.95424 4.37733 -21.4715
1.8588 4.37733 -21.4715
1.81108 4.37733 -21.4715
1.76336 4.37733 -21.4715
1.58337 4.27784 -20.9835
1.53674 4.27784 -20.9835
1.4901 4.27784 -20.9835
1.47703 4.37733 -21.4715
1.42931 4.37733 -21.4715
1.38159 4.37733 -21.4715
1.31854 4.32701 -21.2247
1.27137 4.32701 -21.2247
1.21028 4.27784 -20.9835
1.17702 4.32701 -21.2247
1.14299 4.37733 -21.4715
0.988333 4.32701 -21.2247
0.941161 4.32701 -21.2247
0.893989 4.32701 -21.2247
0.837194 4.27784 -20.9835
0.790558 4.27784 -20.9835
0.752472 4.32701 -21.2247
0.697285 4.27784 -20.9835
0.650649 4.27784 -20.9835
0.61806 4.37733 -21.4715
0.570339 4.37733 -21.4715
0.453791 4.18278 -20.5172
0.408191 4.18278 -20.5172
0.379456 4.37733 -21.4715
0.331736 4.37733 -21.4715
0.284015 4.37733 -21.4715
0.089993 4.22977 -20.7477
-1.36915 2.20146 -10.7985
-1.39315 2.20146 -10.7985
-1.45664 2.18866 -10.7357
-1.53424 2.16351 -10.6123
-1.55782 2.16351 -10.6123
-1.62858 2.16351 -10.6123
-1.64273 2.15114 -10.5517
-1.66618 2.15114 -10.5517
-1.68003 2.13892 -10.4917
-1.71691 2.12684 -10.4325
-1.7401 2.12684 -10.4325
-1.7733 2.13892 -10.4917
-1.79662 2.13892 -10.4917
-1.81994 2.13892 -10.4917
-1.84326 2.13892 -10.4917
-1.8456 2.11489 -10.3739
-1.87921 2.12684 -10.4325
-1.9024 2.12684 -10.4325
-1.91477 2.11489 -10.3739
-1.94877 2.12684 -10.4325
-1.97196 2.12684 -10.4325
-1.98394 2.11489 -10.3739
-2.00699 2.11489 -10.3739
-2.03005 2.11489 -10.3739
-2.0647 2.12684 -10.4325
-2.08789 2.12684 -10.4325
-2.09922 2.11489 -10.3739
-2.13426 2.12684 -10.4325
-2.15745 2.12684 -10.4325
-2.16839 2.11489 -10.3739
-2.21634 2.13892 -10.4917
-2.22701 2.12684 -10.4325
-2.2502 2.12684 -10.4325
-2.26061 2.11489 -10.3739
-2.28367 2.11489 -10.3739
-2.30672 2.11489 -10.3739
-2.34294 2.12684 -10.4325
-2.37957 2.13892 -10.4917
-2.40847 2.10307 -10.3159
-2.44506 2.11489 -10.3739
-2.4589 2.107 -10.3352
-2.49117 2.11489 -10.3739
-2.52843 2.12684 -10.4325
-2.55643 2.13085 -10.4522
-2.58943 2.13892 -10.4917
-2.59799 2.12684 -10.4325
-2.62118 2.12684 -10.4325
-2.62951 2.11489 -10.3739
-2.70091 2.13488 -10.4719
-2.72418 2.13488 -10.4719
-2.75266 2.13892 -10.4917
-2.77598 2.13892 -10.4917
-2.7993 2.13892 -10.4917
-2.92582 2.16351 -10.6123
-2.96252 2.13892 -10.4917
-3.00916 2.13892 -10.4917
-6.91647 4.09185 -20.0712
-7.0503 4.09185 -20.0712
-7.09491 4.09185 -20.0712
-7.19163 4.12171 -20.2177
-7.34377 4.18278 -20.5172
-7.35327 4.13681 -20.2917
-7.39836 4.13681 -20.2917
-7.36256 4.09185 -20.0712
-7.40716 4.09185 -20.0712
-7.45177 4.09185 -20.0712
-7.75915 4.13681 -20.2917
-7.89097 4.18278 -20.5172
-7.93657 4.18278 -20.5172
-5.41504 2.83756 -13.9187
-8.02777 4.18278 -20.5172
-8.07337 4.18278 -20.5172
-8.02975 4.13681 -20.2917
-8.07484 4.13681 -20.2917
-8.03168 4.09185 -20.0712
-8.34696 4.18278 -20.5172
-8.39256 4.18278 -20.5172
-8.34544 4.13681 -20.2917
-8.39054 4.13681 -20.2917
-8.40485 4.12171 -20.2177
-8.38855 4.09185 -20.0712
-8.71176 4.18278 -20.5172
-8.75736 4.18278 -20.5172
-8.80296 4.18278 -20.5172
-8.75132 4.13681 -20.2917
-8.70081 4.09185 -20.0712
-8.84152 4.13681 -20.2917
-8.98536 4.18278 -20.5172
-9.03096 4.18278 -20.5172
-8.97682 4.13681 -20.2917
-9.02192 4.13681 -20.2917
-9.16776 4.18278 -20.5172
-9.21336 4.18278 -20.5172
-9.36299 4.22977 -20.7477
-9.51603 4.27784 -20.9835
-9.56266 4.27784 -20.9835
-9.6093 4.27784 -20.9835
-9.48696 4.18278 -20.5172
-9.53256 4.18278 -20.5172
-9.64964 4.21399 -20.6703
-9.84248 4.27784 -20.9835
-9.88912 4.27784 -20.9835
-9.93575 4.27784 -20.9835
-9.87023 4.22977 -20.7477
-9.91634 4.22977 -20.7477
-9.85176 4.18278 -20.5172
-9.89736 4.18278 -20.5172
-10.2156 4.27784 -20.9835
-10.2622 4.27784 -20.9835
-10.4021 4.27784 -20.9835
-10.4487 4.27784 -20.9835
-10.4954 4.27784 -20.9835
-10.542 4.27784 -20.9835
-10.7575 4.32701 -21.2247
-10.8047 4.32701 -21.2247
-10.7286 4.27784 -20.9835
-10.7752 4.27784 -20.9835
-10.8218 4.27784 -20.9835
-10.7464 4.22977 -20.7477
-10.7925 4.22977 -20.7477
7.13941 4.83566 -23.9811
7.08611 4.83566 -23.9811
6.35701 4.61586 -22.8911
6.30613 4.61586 -22.8911
6.30739 4.65432 -23.0818
6.28226 4.6738 -23.1784
6.0034 4.5408 -22.5189
5.95335 4.5408 -22.5189
5.9033 4.5408 -22.5189
5.85326 4.5408 -22.5189
5.87485 4.59686 -22.7969
5.75316 4.5408 -22.5189
5.65306 4.5408 -22.5189
5.74309 4.65432 -23.0818
5.52019 4.59686 -22.7969
5.53789 4.65432 -23.0818
5.13994 4.4861 -22.2476
5.0905 4.4861 -22.2476
4.98104 4.43269 -21.9827
5.00243 4.5408 -22.5189
4.95238 4.5408 -22.5189
4.90233 4.5408 -22.5189
4.85229 4.5408 -22.5189
4.81969 4.65432 -23.0818
4.70952 4.59686 -22.7969
4.65886 4.59686 -22.7969
4.29477 4.38054 -21.7241
4.24649 4.38054 -21.7241
4.24819 4.43269 -21.9827
4.19933 4.43269 -21.9827
4.15047 4.43269 -21.9827
4.10162 4.43269 -21.9827
4.05276 4.43269 -21.9827
4.0039 4.43269 -21.9827
3.95504 4.43269 -21.9827
3.85733 4.43269 -21.9827
3.71076 4.43269 -21.9827
3.6619 4.43269 -21.9827
3.61305 4.43269 -21.9827
3.56419 4.43269 -21.9827
3.51533 4.43269 -21.9827
3.46648 4.43269 -21.9827
3.29042 4.3296 -21.4715
3.2427 4.3296 -21.4715
3.27105 4.43269 -21.9827
3.22219 4.43269 -21.9827
3.17333 4.43269 -21.9827
3.08772 4.38054 -21.7241
3.03944 4.38054 -21.7241
2.99115 4.38054 -21.7241
2.90865 4.3296 -21.4715
2.84631 4.38054 -21.7241
2.79803 4.38054 -21.7241
2.73362 4.43269 -21.9827
2.62233 4.3296 -21.4715
2.57461 4.3296 -21.4715
2.58705 4.43269 -21.9827
2.53819 4.43269 -21.9827
2.38373 4.3296 -21.4715
2.336 4.3296 -21.4715
2.31521 4.38054 -21.7241
2.24056 4.3296 -21.4715
2.19284 4.3296 -21.4715
2.1962 4.43269 -21.9827
2.14734 4.43269 -21.9827
2.00196 4.3296 -21.4715
1.95424 4.3296 -21.4715
1.90652 4.3296 -21.4715
1.8588 4.3296 -21.4715
1.81108 4.3296 -21.4715
1.76336 4.3296 -21.4715
1.71564 4.3296 -21.4715
1.58337 4.2312 -20.9835
1.53674 4.2312 -20.9835
1.4901 4.2312 -20.9835
1.44346 4.2312 -20.9835
1.41288 4.27984 -21.2247
1.21028 4.2312 -20.9835
1.17702 4.27984 -21.2247
1.14299 4.3296 -21.4715
1.04755 4.3296 -21.4715
0.999825 4.3296 -21.4715
0.952105 4.3296 -21.4715
0.790558 4.2312 -20.9835
0.752472 4.27984 -21.2247
0.7053 4.27984 -21.2247
0.650649 4.2312 -20.9835
0.604013 4.2312 -20.9835
0.557377 4.2312 -20.9835
0.45889 4.18366 -20.7477
0.373663 4.2635 -21.1437
0.326671 4.2635 -21.1437
0.27756 4.2312 -20.9835
0.135093 4.15256 -20.5935
0.809329 -1.38419 6.86449
-1.36915 2.17746 -10.7985
-1.39315 2.17746 -10.7985
-1.41715 2.17746 -10.7985
-1.43278 2.1648 -10.7357
-1.45664 2.1648 -10.7357
-1.4805 2.1648 -10.7357
-1.50436 2.1648 -10.7357
-1.53424 2.13992 -10.6123
-1.55782 2.13992 -10.6123
-1.57537 2.13175 -10.5718
-1.59887 2.13175 -10.5718
-1.62858 2.13992 -10.6123
-1.64273 2.12769 -10.5517
-1.68003 2.1156 -10.4917
-1.70335 2.1156 -10.4917
-1.79368 2.13992 -10.6123
-1.80689 2.12769 -10.5517
-1.83034 2.12769 -10.5517
-1.84326 2.1156 -10.4917
-1.87921 2.10365 -10.4325
-1.9024 2.10365 -10.4325
-1.91477 2.09183 -10.3739
-1.94877 2.10365 -10.4325
-1.97196 2.10365 -10.4325
-2.0647 2.10365 -10.4325
-2.08789 2.10365 -10.4325
-2.09922 2.09183 -10.3739
-2.13426 2.10365 -10.4325
-2.15745 2.10365 -10.4325
-2.16839 2.09183 -10.3739
-2.19144 2.09183 -10.3739
-2.2145 2.09183 -10.3739
-2.23549 2.06859 -10.2586
-2.27091 2.08015 -10.3159
-2.33293 2.1156 -10.4917
-2.56896 2.08015 -10.3159
-2.59189 2.08015 -10.3159
-2.60029 2.06859 -10.2586
-2.73713 2.13992 -10.6123
-2.79184 2.12769 -10.5517
-2.83147 2.13992 -10.6123
-2.82188 2.09772 -10.4031
-2.83701 2.09183 -10.3739
-7.02457 4.13718 -20.5172
-7.03758 4.09171 -20.2917
-7.08267 4.09171 -20.2917
-7.12777 4.09171 -20.2917
-7.09491 4.04724 -20.0712
-7.13951 4.04724 -20.0712
-7.38937 4.13718 -20.5172
-7.43497 4.13718 -20.5172
-7.36256 4.04724 -20.0712
-7.48856 4.09171 -20.2917
-7.70857 4.13718 -20.5172
-7.75417 4.13718 -20.5172
-7.73084 4.07678 -20.2177
-7.71942 4.04724 -20.0712
-8.02777 4.13718 -20.5172
-8.07337 4.13718 -20.5172
-8.02975 4.09171 -20.2917
-8.07484 4.09171 -20.2917
-8.03168 4.04724 -20.0712
-8.07629 4.04724 -20.0712
-8.34696 4.13718 -20.5172
-8.39256 4.13718 -20.5172
-8.40703 4.12191 -20.4415
-8.45246 4.12191 -20.4415
-8.52936 4.13718 -20.5172
-8.71742 4.18366 -20.7477
-8.76354 4.18366 -20.7477
-8.71176 4.13718 -20.5172
-8.72505 4.12191 -20.4415
-8.77048 4.12191 -20.4415
-8.84856 4.13718 -20.5172
-8.89416 4.13718 -20.5172
-9.18957 4.2312 -20.9835
-9.23621 4.2312 -20.9835
-9.17854 4.18366 -20.7477
-9.22466 4.18366 -20.7477
-9.16776 4.13718 -20.5172
-9.21336 4.13718 -20.5172
-9.25896 4.13718 -20.5172
-9.40911 4.18366 -20.7477
-9.45522 4.18366 -20.7477
-9.6093 4.2312 -20.9835
-9.48696 4.13718 -20.5172
-9.53256 4.13718 -20.5172
-9.57816 4.13718 -20.5172
-9.62376 4.13718 -20.5172
-9.778 4.18366 -20.7477
-9.93575 4.2312 -20.9835
-9.85176 4.13718 -20.5172
-9.89736 4.13718 -20.5172
-10.2156 4.2312 -20.9835
-10.2622 4.2312 -20.9835
-10.193 4.18366 -20.7477
-10.2391 4.18366 -20.7477
-10.2469 4.16805 -20.6703
-10.2166 4.13718 -20.5172
-10.3775 4.18366 -20.7477
-10.5887 4.2312 -20.9835
-10.6353 4.2312 -20.9835
-10.6819 4.2312 -20.9835
-10.4902 4.13718 -20.5172
-10.6541 4.18366 -20.7477
-10.8218 4.2312 -20.9835
-10.7464 4.18366 -20.7477
-10.7925 4.18366 -20.7477
7.04788 4.72105 -23.6737
6.99527 4.72105 -23.6737
6.35374 4.49076 -22.5189
6.30369 4.49076 -22.5189
6.35701 4.56498 -22.8911
6.30739 4.60302 -23.0818
6.28226 4.62228 -23.1784
6.23075 4.62228 -23.1784
6.15349 4.60302 -23.0818
5.85326 4.49076 -22.5189
5.80321 4.49076 -22.5189
5.75316 4.49076 -22.5189
5.58495 4.43665 -22.2476
5.74309 4.60302 -23.0818
5.45287 4.49076 -22.5189
5.40282 4.49076 -22.5189
5.35277 4.49076 -22.5189
5.13994 4.43665 -22.2476
5.0905 4.43665 -22.2476
4.98104 4.38383 -21.9827
4.93218 4.38383 -21.9827
5.00243 4.49076 -22.5189
4.95238 4.49076 -22.5189
4.90233 4.49076 -22.5189
4.85229 4.49076 -22.5189
4.63904 4.38383 -21.9827
4.70214 4.49076 -22.5189
4.55199 4.49076 -22.5189
4.50195 4.49076 -22.5189
4.39826 4.43665 -22.2476
4.34881 4.43665 -22.2476
4.3518 4.49076 -22.5189
4.26706 4.45454 -22.3373
4.21742 4.45454 -22.3373
4.05276 4.38383 -21.9827
4.0039 4.38383 -21.9827
3.95504 4.38383 -21.9827
3.90619 4.38383 -21.9827
3.85733 4.38383 -21.9827
3.6671 4.33226 -21.7241
3.57674 4.28188 -21.4715
3.57054 4.33226 -21.7241
3.51533 4.38383 -21.9827
3.46648 4.38383 -21.9827
3.37741 4.33226 -21.7241
3.32913 4.33226 -21.7241
3.21994 4.31534 -21.6392
3.17184 4.31534 -21.6392
3.09954 4.28188 -21.4715
3.07562 4.38383 -21.9827
2.97791 4.38383 -21.9827
2.84631 4.33226 -21.7241
2.79803 4.33226 -21.7241
2.71777 4.28188 -21.4715
2.67005 4.28188 -21.4715
2.58705 4.38383 -21.9827
2.50833 4.33226 -21.7241
2.336 4.28188 -21.4715
2.28828 4.28188 -21.4715
2.24056 4.28188 -21.4715
2.19284 4.28188 -21.4715
2.14512 4.28188 -21.4715
2.0974 4.28188 -21.4715
2.04968 4.28188 -21.4715
2.00196 4.28188 -21.4715
1.86319 4.18457 -20.9835
1.81108 4.28188 -21.4715
1.76336 4.28188 -21.4715
1.71564 4.28188 -21.4715
1.66792 4.28188 -21.4715
1.62019 4.28188 -21.4715
1.57247 4.28188 -21.4715
1.4901 4.18457 -20.9835
1.44346 4.18457 -20.9835
1.41288 4.23267 -21.2247
1.38159 4.28188 -21.4715
1.34956 4.33226 -21.7241
1.23843 4.28188 -21.4715
1.19071 4.28188 -21.4715
1.15643 4.33226 -21.7241
1.10815 4.33226 -21.7241
1.04755 4.28188 -21.4715
0.999825 4.28188 -21.4715
0.952105 4.28188 -21.4715
0.893989 4.23267 -21.2247
0.846817 4.23267 -21.2247
0.790558 4.18457 -20.9835
0.764184 4.29854 -21.555
0.716278 4.29854 -21.555
0.608624 4.21651 -21.1437
0.570339 4.28188 -21.4715
0.516611 4.23267 -21.2247
0.469439 4.23267 -21.2247
0.417469 4.18457 -20.9835
0.326671 4.21651 -21.1437
0.27756 4.18457 -20.9835
0.135093 4.10679 -20.5935
0.0893239 4.10679 -20.5935
-1.29589 2.19192 -10.9914
-1.33733 2.14094 -10.7357
-1.36119 2.14094 -10.7357
-1.4805 2.14094 -10.7357
-1.50436 2.14094 -10.7357
-1.53424 2.11633 -10.6123
-1.55782 2.11633 -10.6123
-1.57537 2.10826 -10.5718
-1.59887 2.10826 -10.5718
-1.62858 2.11633 -10.6123
-1.64273 2.10424 -10.5517
-1.66618 2.10424 -10.5517
-1.67054 2.08046 -10.4325
-1.71308 2.10424 -10.5517
-1.7234 2.08833 -10.4719
-1.74668 2.08833 -10.4719
-1.7733 2.09228 -10.4917
-1.79662 2.09228 -10.4917
-1.82254 2.06878 -10.3739
-1.85603 2.08046 -10.4325
-1.87921 2.08046 -10.4325
-1.91477 2.06878 -10.3739
-2.02214 2.08439 -10.4522
-2.05312 2.09228 -10.4917
-2.0647 2.08046 -10.4325
-2.08789 2.08046 -10.4325
-2.13426 2.08046 -10.4325
-2.15745 2.08046 -10.4325
-2.16839 2.06878 -10.3739
-2.19144 2.06878 -10.3739
-2.23966 2.09228 -10.4917
-2.26061 2.06878 -10.3739
-2.28367 2.06878 -10.3739
-2.31975 2.08046 -10.4325
-2.34294 2.08046 -10.4325
-2.35283 2.06878 -10.3739
-2.36262 2.05722 -10.3159
-2.38554 2.05722 -10.3159
-2.44506 2.06878 -10.3739
-2.46811 2.06878 -10.3739
-2.50524 2.08046 -10.4325
-2.52843 2.08046 -10.4325
-2.53728 2.06878 -10.3739
-2.56034 2.06878 -10.3739
-2.59799 2.08046 -10.4325
-2.62118 2.08046 -10.4325
-2.62951 2.06878 -10.3739
-2.65256 2.06878 -10.3739
-2.69581 2.08439 -10.4522
-2.71904 2.08439 -10.4522
-2.76029 2.08046 -10.4325
-2.7993 2.09228 -10.4917
-2.79876 2.0746 -10.4031
-2.82188 2.0746 -10.4031
-2.83701 2.06878 -10.3739
-2.89257 2.09228 -10.4917
-2.9494 2.11633 -10.6123
-3.04375 2.11633 -10.6123
-3.04981 2.10424 -10.5517
-3.07326 2.10424 -10.5517
-7.02457 4.09158 -20.5172
-7.03758 4.04662 -20.2917
-7.08267 4.04662 -20.2917
-7.0503 4.00263 -20.0712
-7.09491 4.00263 -20.0712
-7.13951 4.00263 -20.0712
-7.30817 4.04662 -20.2917
-7.35327 4.04662 -20.2917
-7.44346 4.04662 -20.2917
-7.48856 4.04662 -20.2917
-7.70857 4.09158 -20.5172
-7.75417 4.09158 -20.5172
-7.6859 4.03185 -20.2177
-7.73084 4.03185 -20.2177
-7.71942 4.00263 -20.0712
-8.02777 4.09158 -20.5172
-8.07337 4.09158 -20.5172
-8.02975 4.04662 -20.2917
-8.07484 4.04662 -20.2917
-8.11994 4.04662 -20.2917
-8.1209 4.00263 -20.0712
-8.40926 4.12211 -20.6703
-8.39256 4.09158 -20.5172
-8.34544 4.04662 -20.2917
-8.39054 4.04662 -20.2917
-8.43563 4.04662 -20.2917
-8.57496 4.09158 -20.5172
-8.62056 4.09158 -20.5172
-8.66616 4.09158 -20.5172
-8.71176 4.09158 -20.5172
-8.66113 4.04662 -20.2917
-8.70623 4.04662 -20.2917
-8.89416 4.09158 -20.5172
-8.93976 4.09158 -20.5172
-8.98536 4.09158 -20.5172
-9.03096 4.09158 -20.5172
-8.97682 4.04662 -20.2917
-9.02192 4.04662 -20.2917
-9.06702 4.04662 -20.2917
-9.30456 4.09158 -20.5172
-9.35016 4.09158 -20.5172
-9.53705 4.15311 -20.8257
-9.48696 4.09158 -20.5172
-9.53256 4.09158 -20.5172
-9.57816 4.09158 -20.5172
-9.62376 4.09158 -20.5172
-9.778 4.13755 -20.7477
-9.93575 4.18457 -20.9835
-9.87023 4.13755 -20.7477
-9.91634 4.13755 -20.7477
-9.96245 4.13755 -20.7477
-9.94296 4.09158 -20.5172
-10.1008 4.13755 -20.7477
-10.2622 4.18457 -20.9835
-10.193 4.13755 -20.7477
-10.2391 4.13755 -20.7477
-10.4021 4.18457 -20.9835
-10.542 4.18457 -20.9835
-10.7104 4.23267 -21.2247
-10.7575 4.23267 -21.2247
-10.8047 4.23267 -21.2247
-10.7286 4.18457 -20.9835
-10.7752 4.18457 -20.9835
-10.8218 4.18457 -20.9835
6.92943 4.58997 -23.2758
6.8777 4.58997 -23.2758
6.35374 4.44071 -22.5189
6.30369 4.44071 -22.5189
6.33085 4.49553 -22.7969
6.35869 4.55173 -23.0818
6.30739 4.55173 -23.0818
6.25609 4.55173 -23.0818
6.0034 4.44071 -22.5189
6.02685 4.49553 -22.7969
5.99959 4.55173 -23.0818
5.94829 4.55173 -23.0818
5.61186 4.36966 -22.1586
5.56261 4.36966 -22.1586
5.67219 4.49553 -22.7969
5.64475 4.51411 -22.8911
5.45287 4.44071 -22.5189
5.40282 4.44071 -22.5189
5.35277 4.44071 -22.5189
5.13994 4.38721 -22.2476
5.0905 4.38721 -22.2476
4.98104 4.33498 -21.9827
4.83447 4.33498 -21.9827
4.84327 4.38721 -22.2476
4.85229 4.44071 -22.5189
4.74438 4.38721 -22.2476
4.69493 4.38721 -22.2476
4.70214 4.44071 -22.5189
4.57766 4.36966 -22.1586
4.52841 4.36966 -22.1586
4.49715 4.38721 -22.2476
4.50195 4.44071 -22.5189
4.39826 4.38721 -22.2476
4.3518 4.44071 -22.5189
4.26706 4.4049 -22.3373
4.10162 4.33498 -21.9827
4.05276 4.33498 -21.9827
3.95504 4.33498 -21.9827
3.95325 4.38721 -22.2476
3.95141 4.44071 -22.5189
3.76367 4.28398 -21.7241
3.71539 4.28398 -21.7241
3.62446 4.23416 -21.4715
3.57674 4.23416 -21.4715
3.56419 4.33498 -21.9827
3.47398 4.28398 -21.7241
3.46648 4.33498 -21.9827
3.37741 4.28398 -21.7241
3.32913 4.28398 -21.7241
3.31991 4.33498 -21.9827
3.17184 4.26724 -21.6392
3.09954 4.23416 -21.4715
3.07562 4.33498 -21.9827
3.02676 4.33498 -21.9827
2.94287 4.28398 -21.7241
2.92905 4.33498 -21.9827
2.84631 4.28398 -21.7241
2.79803 4.28398 -21.7241
2.71777 4.23416 -21.4715
2.67005 4.23416 -21.4715
2.62233 4.23416 -21.4715
2.57461 4.23416 -21.4715
2.52689 4.23416 -21.4715
2.47917 4.23416 -21.4715
2.46005 4.28398 -21.7241
2.41177 4.28398 -21.7241
2.28828 4.23416 -21.4715
2.17036 4.28398 -21.7241
2.14734 4.33498 -21.9827
2.00196 4.23416 -21.4715
1.86319 4.13793 -20.9835
1.8588 4.23416 -21.4715
1.7841 4.28398 -21.7241
1.75648 4.33498 -21.9827
1.68754 4.28398 -21.7241
1.63926 4.28398 -21.7241
1.52475 4.23416 -21.4715
1.42931 4.23416 -21.4715
1.38159 4.23416 -21.4715
1.33387 4.23416 -21.4715
1.27137 4.18549 -21.2247
1.22419 4.18549 -21.2247
1.16365 4.13793 -20.9835
1.14299 4.23416 -21.4715
1.03155 4.16952 -21.1437
0.988333 4.18549 -21.2247
0.897427 4.20159 -21.3063
0.837194 4.13793 -20.9835
0.665781 4.23416 -21.4715
0.570339 4.23416 -21.4715
0.516611 4.18549 -21.2247
0.469439 4.18549 -21.2247
0.417469 4.13793 -20.9835
0.379456 4.23416 -21.4715
0.27756 4.13793 -20.9835
0.230924 4.13793 -20.9835
0.136105 4.09144 -20.7477
0.089993 4.09144 -20.7477
-1.29589 2.16749 -10.9914
-1.33733 2.11708 -10.7357
-1.46348 2.09275 -10.6123
-1.49566 2.10484 -10.6737
-1.51938 2.10484 -10.6737
-1.54311 2.10484 -10.6737
-1.66618 2.08079 -10.5517
-1.67054 2.05728 -10.4325
-1.71308 2.08079 -10.5517
-1.7234 2.06505 -10.4719
-1.74668 2.06505 -10.4719
-1.7733 2.06897 -10.4917
-1.79662 2.06897 -10.4917
-1.82254 2.04572 -10.3739
-1.85603 2.05728 -10.4325
-1.87921 2.05728 -10.4325
-1.91477 2.04572 -10.3739
-1.94877 2.05728 -10.4325
-1.97196 2.05728 -10.4325
-1.9914 2.05341 -10.4129
-2.00699 2.04572 -10.3739
-2.03005 2.04572 -10.3739
-2.04164 2.03429 -10.3159
-2.06456 2.03429 -10.3159
-2.08749 2.03429 -10.3159
-2.11042 2.03429 -10.3159
-2.13334 2.03429 -10.3159
-2.16839 2.04572 -10.3739
-2.19144 2.04572 -10.3739
-2.2145 2.04572 -10.3739
-2.23549 2.02299 -10.2586
-2.25829 2.02299 -10.2586
-2.30672 2.04572 -10.3739
-2.32978 2.04572 -10.3739
-2.35283 2.04572 -10.3739
-2.4314 2.03429 -10.3159
-2.46811 2.04572 -10.3739
-2.50997 2.06116 -10.4522
-2.54682 2.05341 -10.4129
-2.56034 2.04572 -10.3739
-2.59799 2.05728 -10.4325
-2.62118 2.05728 -10.4325
-2.62951 2.04572 -10.3739
-2.65256 2.04572 -10.3739
-2.69581 2.06116 -10.4522
-2.76839 2.08079 -10.5517
-2.79184 2.08079 -10.5517
-2.7993 2.06897 -10.4917
-2.82188 2.05148 -10.4031
-2.89257 2.06897 -10.4917
-2.9494 2.09275 -10.6123
-2.99017 2.10484 -10.6737
-3.09092 2.09275 -10.6123
-6.87186 3.95802 -20.0712
-7.03758 4.00152 -20.2917
-7.12777 4.00152 -20.2917
-7.30817 4.00152 -20.2917
-7.35327 4.00152 -20.2917
-7.44346 4.00152 -20.2917
-7.48856 4.00152 -20.2917
-7.61737 4.04598 -20.5172
-7.66297 4.04598 -20.5172
-7.70857 4.04598 -20.5172
-7.75417 4.04598 -20.5172
-7.71406 4.00152 -20.2917
-7.75915 4.00152 -20.2917
-7.71942 3.95802 -20.0712
-7.80864 3.95802 -20.0712
-8.02777 4.04598 -20.5172
-8.07337 4.04598 -20.5172
-8.02975 4.00152 -20.2917
-8.07484 4.00152 -20.2917
-8.25576 4.04598 -20.5172
-8.30136 4.04598 -20.5172
-8.34696 4.04598 -20.5172
-8.39256 4.04598 -20.5172
-8.34544 4.00152 -20.2917
-8.39054 4.00152 -20.2917
-8.34394 3.95802 -20.0712
-8.48073 4.00152 -20.2917
-8.52583 4.00152 -20.2917
-8.66616 4.04598 -20.5172
-8.84277 4.10682 -20.8257
-8.89416 4.04598 -20.5172
-8.98536 4.04598 -20.5172
-9.16677 4.10682 -20.8257
-9.30456 4.04598 -20.5172
-9.35016 4.04598 -20.5172
-9.53705 4.10682 -20.8257
-9.54744 4.09144 -20.7477
-9.59355 4.09144 -20.7477
-9.53256 4.04598 -20.5172
-9.73189 4.09144 -20.7477
-9.88912 4.13793 -20.9835
-9.93575 4.13793 -20.9835
-9.87023 4.09144 -20.7477
-9.91634 4.09144 -20.7477
-9.96245 4.09144 -20.7477
-10.1223 4.13793 -20.9835
-10.1689 4.13793 -20.9835
-10.2156 4.13793 -20.9835
-10.2622 4.13793 -20.9835
-10.193 4.09144 -20.7477
-10.2391 4.09144 -20.7477
-10.4487 4.13793 -20.9835
-10.4954 4.13793 -20.9835
-10.542 4.13793 -20.9835
-10.5887 4.13793 -20.9835
-10.6353 4.13793 -20.9835
-10.6819 4.13793 -20.9835
-10.7286 4.13793 -20.9835
-10.9151 4.13793 -20.9835
6.98815 4.5767 -23.4731
6.8777 4.53824 -23.2758
6.51259 4.50043 -23.0818
6.28018 4.44486 -22.7969
6.30739 4.50043 -23.0818
6.25609 4.50043 -23.0818
5.95335 4.39066 -22.5189
5.97618 4.44486 -22.7969
5.92552 4.44486 -22.7969
5.89699 4.50043 -23.0818
5.56261 4.32041 -22.1586
5.67219 4.44486 -22.7969
5.64475 4.46323 -22.8911
5.59387 4.46323 -22.8911
5.45287 4.39066 -22.5189
5.40282 4.39066 -22.5189
5.35277 4.39066 -22.5189
5.36819 4.44486 -22.7969
5.31752 4.44486 -22.7969
5.33269 4.50043 -23.0818
4.83447 4.28612 -21.9827
4.78561 4.28612 -21.9827
4.73675 4.28612 -21.9827
4.74438 4.33776 -22.2476
4.69493 4.33776 -22.2476
4.52841 4.32041 -22.1586
4.49715 4.33776 -22.2476
4.50195 4.39066 -22.5189
4.39826 4.33776 -22.2476
4.3518 4.39066 -22.5189
4.30175 4.39066 -22.5189
4.20048 4.33776 -22.2476
4.15103 4.33776 -22.2476
4.05214 4.33776 -22.2476
3.95504 4.28612 -21.9827
3.95325 4.33776 -22.2476
3.85436 4.33776 -22.2476
3.80491 4.33776 -22.2476
3.71076 4.28612 -21.9827
3.6619 4.28612 -21.9827
3.59877 4.26918 -21.8958
3.5501 4.26918 -21.8958
3.37741 4.23569 -21.7241
3.32913 4.23569 -21.7241
3.31991 4.28612 -21.9827
3.27105 4.28612 -21.9827
3.09954 4.18644 -21.4715
3.05182 4.18644 -21.4715
3.00409 4.18644 -21.4715
2.95637 4.18644 -21.4715
2.90865 4.18644 -21.4715
2.92905 4.28612 -21.9827
2.84631 4.23569 -21.7241
2.79803 4.23569 -21.7241
2.71777 4.18644 -21.4715
2.62233 4.18644 -21.4715
2.59472 4.21915 -21.6392
2.58705 4.28612 -21.9827
2.46005 4.23569 -21.7241
2.41177 4.23569 -21.7241
2.336 4.18644 -21.4715
2.17036 4.23569 -21.7241
2.14734 4.28612 -21.9827
1.95424 4.18644 -21.4715
1.90652 4.18644 -21.4715
1.81108 4.18644 -21.4715
1.76336 4.18644 -21.4715
1.71564 4.18644 -21.4715
1.64874 4.13832 -21.2247
1.60157 4.13832 -21.2247
1.53674 4.0913 -20.9835
1.54269 4.23569 -21.7241
1.39683 4.0913 -20.9835
1.33387 4.18644 -21.4715
1.15057 4.04533 -20.7477
1.07855 4.12253 -21.1437
1.03155 4.12253 -21.1437
0.988333 4.13832 -21.2247
0.897427 4.15424 -21.3063
0.850074 4.15424 -21.3063
0.790558 4.0913 -20.9835
0.7053 4.13832 -21.2247
0.658128 4.13832 -21.2247
0.604013 4.0913 -20.9835
0.557377 4.0913 -20.9835
0.408191 4.00038 -20.5172
0.373663 4.12253 -21.1437
0.230924 4.0913 -20.9835
0.184288 4.0913 -20.9835
0.137132 4.07586 -20.9043
0.0906722 4.07586 -20.9043
-0.898987 2.25021 -11.5409
-1.29589 2.14306 -10.9914
-1.56344 2.04565 -10.4917
-1.605 2.06916 -10.6123
-1.62858 2.06916 -10.6123
-1.64273 2.05734 -10.5517
-1.66618 2.05734 -10.5517
-1.68003 2.04565 -10.4917
-1.70335 2.04565 -10.4917
-1.72667 2.04565 -10.4917
-1.78647 2.03409 -10.4325
-1.80966 2.03409 -10.4325
-1.94877 2.03409 -10.4325
-1.97196 2.03409 -10.4325
-1.9914 2.03027 -10.4129
-2.00699 2.02266 -10.3739
-2.03005 2.02266 -10.3739
-2.04164 2.01136 -10.3159
-2.06456 2.01136 -10.3159
-2.08749 2.01136 -10.3159
-2.11042 2.01136 -10.3159
-2.13334 2.01136 -10.3159
-2.16839 2.02266 -10.3739
-2.19144 2.02266 -10.3739
-2.2145 2.02266 -10.3739
-2.23549 2.00019 -10.2586
-2.25829 2.00019 -10.2586
-2.30672 2.02266 -10.3739
-2.32978 2.02266 -10.3739
-2.35283 2.02266 -10.3739
-2.4314 2.01136 -10.3159
-2.46811 2.02266 -10.3739
-2.50997 2.03793 -10.4522
-2.5332 2.03793 -10.4522
-2.54682 2.03027 -10.4129
-2.56034 2.02266 -10.3739
-2.56896 2.01136 -10.3159
-2.59189 2.01136 -10.3159
-2.62214 2.017 -10.3448
-2.65256 2.02266 -10.3739
-2.70602 2.04565 -10.4917
-2.74479 2.02266 -10.3739
-2.78348 2.03409 -10.4325
-2.82261 2.04565 -10.4917
-2.86925 2.04565 -10.4917
-2.9091 2.05734 -10.5517
-2.99017 2.08112 -10.6737
-6.96696 3.94198 -20.2177
-7.11577 4.00038 -20.5172
-7.0503 3.91341 -20.0712
-7.34377 4.00038 -20.5172
-7.38937 4.00038 -20.5172
-7.43497 4.00038 -20.5172
-7.36256 3.91341 -20.0712
-7.40716 3.91341 -20.0712
-7.45177 3.91341 -20.0712
-7.49638 3.91341 -20.0712
-7.62386 3.95642 -20.2917
-7.69715 3.97096 -20.3663
-7.71406 3.95642 -20.2917
-7.75915 3.95642 -20.2917
-7.84935 3.95642 -20.2917
-7.98217 4.00038 -20.5172
-8.02777 4.00038 -20.5172
-8.07337 4.00038 -20.5172
-4.37549 2.15589 -11.0572
-4.40006 2.15589 -11.0572
-8.16504 3.95642 -20.2917
-8.1209 3.91341 -20.0712
-8.25524 3.95642 -20.2917
-8.39256 4.00038 -20.5172
-8.48073 3.95642 -20.2917
-8.52583 3.95642 -20.2917
-8.66616 4.00038 -20.5172
-8.84277 4.06053 -20.8257
-8.85576 4.04533 -20.7477
-8.90187 4.04533 -20.7477
-8.76432 3.94198 -20.2177
-9.08632 4.04533 -20.7477
-9.03096 4.00038 -20.5172
-9.28285 4.0913 -20.9835
-9.16776 4.00038 -20.5172
-9.21336 4.00038 -20.5172
-9.30456 4.00038 -20.5172
-9.35016 4.00038 -20.5172
-9.54744 4.04533 -20.7477
-9.59355 4.04533 -20.7477
-9.53256 4.00038 -20.5172
-9.79584 4.0913 -20.9835
-9.84248 4.0913 -20.9835
-9.778 4.04533 -20.7477
-9.93575 4.0913 -20.9835
-9.87023 4.04533 -20.7477
-9.91634 4.04533 -20.7477
-10.1223 4.0913 -20.9835
-9.94296 4.00038 -20.5172
-10.1008 4.04533 -20.7477
-10.2622 4.0913 -20.9835
-10.193 4.04533 -20.7477
-10.2391 4.04533 -20.7477
-10.3313 4.04533 -20.7477
-10.5887 4.0913 -20.9835
-10.6353 4.0913 -20.9835
-10.6819 4.0913 -20.9835
-10.7286 4.0913 -20.9835
-10.8685 4.0913 -20.9835
6.98815 4.52453 -23.4731
6.93598 4.52453 -23.4731
6.76908 4.44913 -23.0818
6.50389 4.34061 -22.5189
6.69892 4.50544 -23.374
6.51259 4.44913 -23.0818
6.46129 4.44913 -23.0818
6.22952 4.3942 -22.7969
6.1035 4.34061 -22.5189
6.12818 4.3942 -22.7969
6.07752 4.3942 -22.7969
5.97618 4.3942 -22.7969
5.92552 4.3942 -22.7969
5.89699 4.44913 -23.0818
5.60301 4.34061 -22.5189
5.62152 4.3942 -22.7969
5.57085 4.3942 -22.7969
5.38717 4.28831 -22.2476
5.40282 4.34061 -22.5189
5.30272 4.34061 -22.5189
5.25267 4.34061 -22.5189
5.20263 4.34061 -22.5189
5.05248 4.34061 -22.5189
5.06419 4.3942 -22.7969
5.01352 4.3942 -22.7969
4.73675 4.23726 -21.9827
4.74438 4.28831 -22.2476
4.69493 4.28831 -22.2476
4.70214 4.34061 -22.5189
4.44361 4.23726 -21.9827
4.39476 4.23726 -21.9827
4.3459 4.23726 -21.9827
4.40185 4.34061 -22.5189
4.3518 4.34061 -22.5189
4.30175 4.34061 -22.5189
4.20048 4.28831 -22.2476
4.15103 4.28831 -22.2476
4.0039 4.23726 -21.9827
3.95504 4.23726 -21.9827
3.90619 4.23726 -21.9827
3.85436 4.28831 -22.2476
3.59877 4.22051 -21.8958
3.5501 4.22051 -21.8958
3.51533 4.23726 -21.9827
3.46648 4.23726 -21.9827
3.40088 4.34061 -22.5189
3.35083 4.34061 -22.5189
3.12448 4.23726 -21.9827
3.07562 4.23726 -21.9827
3.02676 4.23726 -21.9827
2.92905 4.23726 -21.9827
