VERSION 0.7
FIELDS x y z
SIZE 4 4 4
TYPE F F F
COUNT 1 1 1
WIDTH 1876
HEIGHT 1
VIEWPOINT 0 0 0 1 0 0 0
POINTS 1876
DATA ascii
4.05276 1.45242 -21.9827
4.0039 1.45242 -21.9827
3.95504 1.45242 -21.9827
3.90619 1.45242 -21.9827
3.80847 1.45242 -21.9827
3.75962 1.45242 -21.9827
3.71076 1.45242 -21.9827
3.56419 1.45242 -21.9827
3.51533 1.45242 -21.9827
3.46648 1.45242 -21.9827
3.37741 1.43533 -21.7241
3.32913 1.43533 -21.7241
3.2427 1.41864 -21.4715
3.23257 1.43533 -21.7241
3.18428 1.43533 -21.7241
3.12375 1.42973 -21.6392
3.12448 1.45242 -21.9827
2.96956 1.40234 -21.2247
2.92239 1.40234 -21.2247
2.84255 1.3864 -20.9835
2.92905 1.45242 -21.9827
2.76549 1.41864 -21.4715
2.71777 1.41864 -21.4715
2.67005 1.41864 -21.4715
2.52689 1.41864 -21.4715
2.45067 1.40234 -21.2247
2.4035 1.40234 -21.2247
2.32955 1.3864 -20.9835
2.28291 1.3864 -20.9835
2.26198 1.40234 -21.2247
2.21481 1.40234 -21.2247
2.19284 1.41864 -21.4715
2.14512 1.41864 -21.4715
2.02612 1.40234 -21.2247
2.00196 1.41864 -21.4715
1.95424 1.41864 -21.4715
1.90652 1.41864 -21.4715
1.8588 1.41864 -21.4715
1.81108 1.41864 -21.4715
1.74309 1.40234 -21.2247
1.69592 1.40234 -21.2247
1.63001 1.3864 -20.9835
1.58337 1.3864 -20.9835
1.53674 1.3864 -20.9835
1.4901 1.3864 -20.9835
1.44346 1.3864 -20.9835
1.41288 1.40234 -21.2247
1.36571 1.40234 -21.2247
1.31854 1.40234 -21.2247
1.25692 1.3864 -20.9835
1.21028 1.3864 -20.9835
1.17702 1.40234 -21.2247
1.14299 1.41864 -21.4715
1.07037 1.3864 -20.9835
1.02374 1.3864 -20.9835
0.988333 1.40234 -21.2247
0.941161 1.40234 -21.2247
0.799644 1.40234 -21.2247
0.708013 1.40773 -21.3063
0.665781 1.41864 -21.4715
0.557377 1.3864 -20.9835
0.510741 1.3864 -20.9835
0.464105 1.3864 -20.9835
0.417469 1.3864 -20.9835
0.376538 1.40773 -21.3063
0.27756 1.3864 -20.9835
0.230924 1.3864 -20.9835
0.184288 1.3864 -20.9835
0.137652 1.3864 -20.9835
-0.00225661 1.3864 -20.9835
-0.0494547 1.40234 -21.2247
-0.139006 1.35559 -20.5172
-0.233667 1.37598 -20.8257
-0.278904 1.37082 -20.7477
-0.325016 1.37082 -20.7477
-0.375346 1.3864 -20.9835
-0.421982 1.3864 -20.9835
-0.503804 1.35559 -20.5172
-0.557665 1.37598 -20.8257
-1.6008 0.897083 -13.5776
-1.61908 0.890535 -13.4784
-1.64903 0.890535 -13.4784
-1.66682 0.884081 -13.3808
-1.69656 0.884081 -13.3808
-1.7263 0.884081 -13.3808
-1.71137 0.847245 -12.8232
-1.82877 0.890535 -13.4784
-1.85872 0.890535 -13.4784
-2.01146 0.829954 -12.5615
-2.23236 0.818814 -12.3929
-2.79561 0.865271 -13.0961
-2.84489 0.871452 -13.1896
-2.89488 0.877721 -13.2845
-2.92441 0.877721 -13.2845
-2.97534 0.884081 -13.3808
-3.02701 0.890535 -13.4784
-3.03481 0.884081 -13.3808
-3.08692 0.890535 -13.4784
-3.11688 0.890535 -13.4784
-3.12403 0.884081 -13.3808
-3.17679 0.890535 -13.4784
-3.25425 0.903728 -13.6781
-3.28465 0.903728 -13.6781
-3.29068 0.897083 -13.5776
-16.2361 4.1592 -62.9505
-5.86501 1.3407 -20.2917
-5.91011 1.3407 -20.2917
-5.93508 1.32612 -20.0712
-6.06827 1.3358 -20.2177
-6.06891 1.32612 -20.0712
-6.1807 1.3407 -20.2917
-6.2258 1.3407 -20.2917
-6.20274 1.32612 -20.0712
-6.316 1.3407 -20.2917
-6.36109 1.3407 -20.2917
-6.40619 1.3407 -20.2917
-6.38117 1.32612 -20.0712
-6.49639 1.3407 -20.2917
-6.54149 1.3407 -20.2917
-6.515 1.32612 -20.0712
-6.5596 1.32612 -20.0712
-6.60421 1.32612 -20.0712
-6.64882 1.32612 -20.0712
-6.81208 1.3407 -20.2917
-6.85718 1.3407 -20.2917
-6.82725 1.32612 -20.0712
-6.87186 1.32612 -20.0712
-6.81766 1.30718 -19.7844
-6.86164 1.30718 -19.7844
-6.93036 1.31186 -19.8553
-7.12777 1.3407 -20.2917
-7.17287 1.3407 -20.2917
-7.26307 1.3407 -20.2917
-7.16943 1.30718 -19.7844
-7.23926 1.31186 -19.8553
-7.44346 1.3407 -20.2917
-7.48856 1.3407 -20.2917
-7.66297 1.35559 -20.5172
-7.50403 1.31186 -19.8553
-7.63021 1.32612 -20.0712
-7.71942 1.32612 -20.0712
-7.84935 1.3407 -20.2917
-7.80864 1.32612 -20.0712
-7.72982 1.29791 -19.6441
-7.94247 1.32612 -20.0712
-8.09031 1.3358 -20.2177
-8.25576 1.35559 -20.5172
-8.21014 1.3407 -20.2917
-8.25524 1.3407 -20.2917
-8.21012 1.32612 -20.0712
-8.29933 1.32612 -20.0712
-8.43563 1.3407 -20.2917
-8.48073 1.3407 -20.2917
-8.34248 1.31186 -19.8553
-8.38661 1.31186 -19.8553
-8.43074 1.31186 -19.8553
-8.66113 1.3407 -20.2917
-8.70623 1.3407 -20.2917
-8.75132 1.3407 -20.2917
-8.77722 1.33094 -20.1441
-8.82199 1.33094 -20.1441
-8.83464 1.32612 -20.0712
-9.04307 1.35059 -20.4415
-9.0885 1.35059 -20.4415
-9.16776 1.35559 -20.5172
-9.21336 1.35559 -20.5172
-9.29338 1.36063 -20.5935
-9.33915 1.36063 -20.5935
-9.35016 1.35559 -20.5172
-9.50133 1.37082 -20.7477
-9.54744 1.37082 -20.7477
-10.9465 1.56414 -23.6737
-9.53256 1.35559 -20.5172
-9.57816 1.35559 -20.5172
-9.62376 1.35559 -20.5172
-9.88912 1.3864 -20.9835
-9.82411 1.37082 -20.7477
-9.87023 1.37082 -20.7477
-9.80616 1.35559 -20.5172
-9.96245 1.37082 -20.7477
-10.0172 1.36571 -20.6703
-2.38454 0.323616 -4.898
-10.0798 1.35559 -20.5172
-10.1254 1.35559 -20.5172
-2.89679 0.386086 -5.8435
-10.4236 1.37082 -20.7477
-10.4697 1.37082 -20.7477
-10.399 1.35559 -20.5172
-10.6819 1.3864 -20.9835
-10.7286 1.3864 -20.9835
-10.7002 1.37082 -20.7477
7.31096 1.51153 -23.6737
7.25834 1.51153 -23.6737
7.11451 1.4924 -23.374
6.92298 1.47374 -23.0818
6.60398 1.4378 -22.5189
6.55394 1.4378 -22.5189
6.50389 1.4378 -22.5189
6.45384 1.4378 -22.5189
6.56388 1.47374 -23.0818
6.43218 1.45555 -22.7969
6.38152 1.45555 -22.7969
6.25364 1.4378 -22.5189
6.2036 1.4378 -22.5189
6.05345 1.4378 -22.5189
5.95499 1.4262 -22.3373
5.90534 1.4262 -22.3373
5.76275 1.40356 -21.9827
5.87485 1.45555 -22.7969
5.75316 1.4378 -22.5189
5.70311 1.4378 -22.5189
5.58495 1.42047 -22.2476
5.53551 1.42047 -22.2476
5.57085 1.45555 -22.7969
5.28828 1.42047 -22.2476
5.12761 1.40356 -21.9827
5.07875 1.40356 -21.9827
5.0299 1.40356 -21.9827
4.98104 1.40356 -21.9827
4.93218 1.40356 -21.9827
4.88333 1.40356 -21.9827
4.78561 1.40356 -21.9827
4.73675 1.40356 -21.9827
4.53618 1.38705 -21.7241
4.54133 1.40356 -21.9827
4.47471 1.39802 -21.8958
4.42605 1.39802 -21.8958
4.39476 1.40356 -21.9827
4.3459 1.40356 -21.9827
4.29704 1.40356 -21.9827
4.24819 1.40356 -21.9827
4.19933 1.40356 -21.9827
4.05276 1.40356 -21.9827
4.0039 1.40356 -21.9827
3.95504 1.40356 -21.9827
3.90619 1.40356 -21.9827
3.85733 1.40356 -21.9827
3.76367 1.38705 -21.7241
3.71539 1.38705 -21.7241
3.62446 1.37092 -21.4715
3.65658 1.42047 -22.2476
3.60713 1.42047 -22.2476
3.43358 1.37092 -21.4715
3.38586 1.37092 -21.4715
3.37741 1.38705 -21.7241
3.32913 1.38705 -21.7241
3.2427 1.37092 -21.4715
3.23257 1.38705 -21.7241
3.18428 1.38705 -21.7241
3.09954 1.37092 -21.4715
3.05182 1.37092 -21.4715
2.98099 1.36038 -21.3063
2.93363 1.36038 -21.3063
2.90865 1.37092 -21.4715
2.86093 1.37092 -21.4715
2.82416 1.37626 -21.555
2.71777 1.37092 -21.4715
2.67005 1.37092 -21.4715
2.57461 1.37092 -21.4715
2.56668 1.39251 -21.8096
2.50833 1.38705 -21.7241
2.46005 1.38705 -21.7241
2.38373 1.37092 -21.4715
2.28291 1.33976 -20.9835
2.26198 1.35516 -21.2247
2.21481 1.35516 -21.2247
2.21864 1.38705 -21.7241
2.1962 1.40356 -21.9827
2.12208 1.38705 -21.7241
2.07379 1.38705 -21.7241
2.00196 1.37092 -21.4715
1.95424 1.37092 -21.4715
1.90652 1.37092 -21.4715
1.8588 1.37092 -21.4715
1.81108 1.37092 -21.4715
1.76336 1.37092 -21.4715
1.58337 1.33976 -20.9835
1.5544 1.35516 -21.2247
1.52475 1.37092 -21.4715
1.47703 1.37092 -21.4715
1.42931 1.37092 -21.4715
1.36571 1.35516 -21.2247
1.31854 1.35516 -21.2247
1.25692 1.33976 -20.9835
1.21028 1.33976 -20.9835
1.14299 1.37092 -21.4715
1.07037 1.33976 -20.9835
1.02374 1.33976 -20.9835
0.988333 1.35516 -21.2247
0.941161 1.35516 -21.2247
0.88383 1.33976 -20.9835
0.827787 1.32471 -20.7477
0.790558 1.33976 -20.9835
0.761222 1.37092 -21.4715
0.697285 1.33976 -20.9835
0.650649 1.33976 -20.9835
0.551114 1.32471 -20.7477
0.464105 1.33976 -20.9835
0.291565 0.935708 -14.6551
0.370832 1.33976 -20.9835
0.230075 0.950801 -14.8915
0.280751 1.35516 -21.2247
0.233578 1.35516 -21.2247
0.184288 1.33976 -20.9835
0.134593 1.30999 -20.5172
0.0889931 1.30999 -20.5172
0.0443795 1.33976 -20.9835
-0.00225661 1.33976 -20.9835
-0.0488927 1.33976 -20.9835
-0.18668 1.32471 -20.7477
-0.235437 1.33976 -20.9835
-0.278904 1.32471 -20.7477
-0.325016 1.32471 -20.7477
-0.375346 1.33976 -20.9835
-0.421982 1.33976 -20.9835
-0.503804 1.30999 -20.5172
-0.557665 1.32969 -20.8257
-1.58912 0.860579 -13.4784
-1.61908 0.860579 -13.4784
-1.64903 0.860579 -13.4784
-1.66682 0.854343 -13.3808
-1.69656 0.854343 -13.3808
-1.75604 0.854343 -13.3808
-1.8032 0.862678 -13.5113
-1.81889 0.842138 -13.1896
-1.84821 0.842138 -13.1896
-1.85387 0.818745 -12.8232
-1.99787 0.796617 -12.4767
-2.0673 0.802036 -12.5615
-2.09522 0.802036 -12.5615
-2.03186 0.607728 -9.51828
-2.84489 0.842138 -13.1896
-2.89488 0.848196 -13.2845
-2.92441 0.848196 -13.2845
-2.95393 0.848196 -13.2845
-3.00508 0.854343 -13.3808
-3.07944 0.866906 -13.5776
-3.04251 0.848196 -13.2845
-3.07203 0.848196 -13.2845
-3.0794 0.842138 -13.1896
-3.20015 0.866906 -13.5776
-3.20675 0.860579 -13.4784
-3.2367 0.860579 -13.4784
-3.24299 0.854343 -13.3808
-3.27273 0.854343 -13.3808
-5.67402 1.32471 -20.7477
-5.79338 1.30999 -20.5172
-5.86501 1.2956 -20.2917
-5.91011 1.2956 -20.2917
-5.89048 1.28151 -20.0712
-5.93508 1.28151 -20.0712
-5.9154 1.26773 -19.8553
-5.95952 1.26773 -19.8553
-5.93978 1.25425 -19.6441
-6.34057 1.30999 -20.5172
-6.38617 1.30999 -20.5172
-6.2243 1.26773 -19.8553
-6.26843 1.26773 -19.8553
-6.2454 1.25425 -19.6441
-6.49639 1.2956 -20.2917
-6.54149 1.2956 -20.2917
-6.58659 1.2956 -20.2917
-6.70537 1.30999 -20.5172
-6.67679 1.2956 -20.2917
-6.72188 1.2956 -20.2917
-6.69343 1.28151 -20.0712
-6.81208 1.2956 -20.2917
-6.85718 1.2956 -20.2917
-6.82725 1.28151 -20.0712
-6.92202 1.29087 -20.2177
-6.86164 1.26321 -19.7844
-6.93036 1.26773 -19.8553
-7.12777 1.2956 -20.2917
-7.17287 1.2956 -20.2917
-7.26307 1.2956 -20.2917
-7.30817 1.2956 -20.2917
-7.35327 1.2956 -20.2917
-7.31795 1.28151 -20.0712
-7.45177 1.28151 -20.0712
-7.49638 1.28151 -20.0712
-7.4242 1.25425 -19.6441
-7.54816 1.26773 -19.8553
-7.80425 1.2956 -20.2917
-7.93657 1.30999 -20.5172
-7.98217 1.30999 -20.5172
-7.93955 1.2956 -20.2917
-7.98465 1.2956 -20.2917
-7.94247 1.28151 -20.0712
-8.07484 1.2956 -20.2917
-8.11994 1.2956 -20.2917
-8.25576 1.30999 -20.5172
-8.21014 1.2956 -20.2917
-8.25524 1.2956 -20.2917
-8.12184 1.26773 -19.8553
-8.34544 1.2956 -20.2917
-8.39054 1.2956 -20.2917
-8.34394 1.28151 -20.0712
-8.48073 1.2956 -20.2917
-8.43074 1.26773 -19.8553
-8.66113 1.2956 -20.2917
-8.70623 1.2956 -20.2917
-8.75132 1.2956 -20.2917
-8.89416 1.30999 -20.5172
-8.84152 1.2956 -20.2917
-8.88662 1.2956 -20.2917
-8.93172 1.2956 -20.2917
-9.17854 1.32471 -20.7477
-9.22466 1.32471 -20.7477
-9.16776 1.30999 -20.5172
-103.65 14.7374 -230.818
-9.15721 1.2956 -20.2917
-9.20231 1.2956 -20.2917
-9.45522 1.32471 -20.7477
-9.39576 1.30999 -20.5172
-9.44136 1.30999 -20.5172
-11.6431 1.60772 -25.1802
-9.53256 1.30999 -20.5172
-9.4729 1.2956 -20.2917
-9.518 1.2956 -20.2917
-9.66936 1.30999 -20.5172
-9.6082 1.2956 -20.2917
-9.6533 1.2956 -20.2917
-9.97122 1.31977 -20.6703
-10.0172 1.31977 -20.6703
-2.38454 0.31273 -4.898
-10.0798 1.30999 -20.5172
-10.1254 1.30999 -20.5172
-2.89679 0.373099 -5.8435
-10.4954 1.33976 -20.9835
-10.542 1.33976 -20.9835
-10.4446 1.30999 -20.5172
-10.608 1.32471 -20.7477
-2.00068 0.247688 -3.8793
7.21841 1.44045 -23.374
7.16646 1.44045 -23.374
7.02558 1.42244 -23.0818
6.88818 1.40488 -22.7969
6.83751 1.40488 -22.7969
6.73618 1.40488 -22.7969
6.68551 1.40488 -22.7969
6.55394 1.38775 -22.5189
6.50389 1.38775 -22.5189
6.48285 1.40488 -22.7969
6.51259 1.42244 -23.0818
6.38152 1.40488 -22.7969
6.33085 1.40488 -22.7969
6.2036 1.38775 -22.5189
6.15355 1.38775 -22.5189
6.05345 1.38775 -22.5189
5.95499 1.37656 -22.3373
5.76275 1.35471 -21.9827
5.92552 1.40488 -22.7969
5.61618 1.35471 -21.9827
5.6344 1.37103 -22.2476
5.65306 1.38775 -22.5189
5.55297 1.38775 -22.5189
5.50292 1.38775 -22.5189
5.38717 1.37103 -22.2476
5.33773 1.37103 -22.2476
5.23883 1.37103 -22.2476
5.25267 1.38775 -22.5189
5.20263 1.38775 -22.5189
5.15258 1.38775 -22.5189
5.04105 1.37103 -22.2476
4.99161 1.37103 -22.2476
4.88333 1.35471 -21.9827
4.93233 1.38213 -22.4277
4.88249 1.38213 -22.4277
4.6879 1.35471 -21.9827
4.58446 1.33877 -21.7241
4.53618 1.33877 -21.7241
4.54133 1.35471 -21.9827
4.42605 1.34935 -21.8958
4.39476 1.35471 -21.9827
4.3459 1.35471 -21.9827
4.29704 1.35471 -21.9827
4.24819 1.35471 -21.9827
4.19933 1.35471 -21.9827
4.10164 1.33877 -21.7241
4.05336 1.33877 -21.7241
3.95851 1.3232 -21.4715
3.91079 1.3232 -21.4715
3.86307 1.3232 -21.4715
3.90619 1.35471 -21.9827
3.85733 1.35471 -21.9827
3.80847 1.35471 -21.9827
3.62446 1.3232 -21.4715
3.57674 1.3232 -21.4715
3.57054 1.33877 -21.7241
3.52226 1.33877 -21.7241
3.43358 1.3232 -21.4715
3.38586 1.3232 -21.4715
3.33814 1.3232 -21.4715
3.29042 1.3232 -21.4715
3.1704 1.31302 -21.3063
3.12305 1.31302 -21.3063
2.98099 1.31302 -21.3063
2.90865 1.3232 -21.4715
2.86093 1.3232 -21.4715
2.82416 1.32835 -21.555
2.77625 1.32835 -21.555
2.71777 1.3232 -21.4715
2.62233 1.3232 -21.4715
2.63591 1.35471 -21.9827
2.47917 1.3232 -21.4715
2.38373 1.3232 -21.4715
2.336 1.3232 -21.4715
2.28828 1.3232 -21.4715
2.24056 1.3232 -21.4715
2.19284 1.3232 -21.4715
2.14512 1.3232 -21.4715
2.07329 1.30799 -21.2247
2.02612 1.30799 -21.2247
1.95646 1.29313 -20.9835
1.90982 1.29313 -20.9835
1.90652 1.3232 -21.4715
1.81655 1.29313 -20.9835
1.79026 1.30799 -21.2247
1.64245 1.303 -21.1437
1.62019 1.3232 -21.4715
1.57247 1.3232 -21.4715
1.42931 1.3232 -21.4715
1.36571 1.30799 -21.2247
1.31854 1.30799 -21.2247
1.25692 1.29313 -20.9835
1.21028 1.29313 -20.9835
1.16365 1.29313 -20.9835
1.11701 1.29313 -20.9835
1.08268 1.30799 -21.2247
0.977102 1.29313 -20.9835
0.930466 1.29313 -20.9835
0.88383 1.29313 -20.9835
0.837194 1.29313 -20.9835
0.790558 1.29313 -20.9835
0.743921 1.29313 -20.9835
0.697285 1.29313 -20.9835
0.650649 1.29313 -20.9835
0.597226 1.2786 -20.7477
0.551114 1.2786 -20.7477
0.464105 1.29313 -20.9835
0.322256 0.998204 -16.1978
0.370832 1.29313 -20.9835
0.251729 1.00408 -16.2931
0.27756 1.29313 -20.9835
0.134593 1.26439 -20.5172
0.0889931 1.26439 -20.5172
0.0443795 1.29313 -20.9835
-0.00225661 1.29313 -20.9835
-0.0488927 1.29313 -20.9835
-0.0966269 1.30799 -21.2247
-0.143799 1.30799 -21.2247
-0.188801 1.29313 -20.9835
-0.230205 1.26439 -20.5172
-0.275805 1.26439 -20.5172
-0.375346 1.29313 -20.9835
-0.421982 1.29313 -20.9835
-0.474004 1.30799 -21.2247
-0.521176 1.30799 -21.2247
-0.582069 1.23691 -20.0712
-1.54045 0.83673 -13.5776
-1.58526 0.828606 -13.4457
-1.61515 0.828606 -13.4457
-1.64503 0.828606 -13.4457
-1.69656 0.824604 -13.3808
-1.75604 0.824604 -13.3808
-1.8032 0.832648 -13.5113
-1.84821 0.812823 -13.1896
-1.88469 0.77942 -12.6476
-2.02524 0.77942 -12.6476
-2.0673 0.774118 -12.5615
-2.09522 0.774118 -12.5615
-2.13768 0.77942 -12.6476
-2.12218 0.763727 -12.3929
-2.14972 0.763727 -12.3929
-2.17727 0.763727 -12.3929
-2.27517 0.768887 -12.4767
-2.3029 0.768887 -12.4767
-2.36255 0.77942 -12.6476
-2.42474 0.772366 -12.5331
-2.44155 0.768887 -12.4767
-2.02144 0.583566 -9.46947
-2.84489 0.812823 -13.1896
-2.96103 0.820639 -13.3164
-3.00508 0.824604 -13.3808
-3.03481 0.824604 -13.3808
-3.04251 0.818671 -13.2845
-3.07203 0.818671 -13.2845
-3.0794 0.812823 -13.1896
-3.20675 0.830623 -13.4784
-3.2367 0.830623 -13.4784
-3.26666 0.830623 -13.4784
-3.32086 0.83673 -13.5776
-5.85163 1.30799 -21.2247
-5.74778 1.26439 -20.5172
-5.90394 1.2588 -20.4264
-5.88854 1.24593 -20.2177
-5.89048 1.23691 -20.0712
-5.93508 1.23691 -20.0712
-5.9154 1.22361 -19.8553
-5.95952 1.22361 -19.8553
-6.20377 1.26439 -20.5172
-6.1807 1.2505 -20.2917
-6.2258 1.2505 -20.2917
-6.20274 1.23691 -20.0712
-6.24734 1.23691 -20.0712
-6.2243 1.22361 -19.8553
-6.26843 1.22361 -19.8553
-6.31255 1.22361 -19.8553
-6.44914 1.2414 -20.1441
-6.49392 1.2414 -20.1441
-6.515 1.23691 -20.0712
-6.5596 1.23691 -20.0712
-6.5567 1.22801 -19.9268
-6.69343 1.23691 -20.0712
-6.81208 1.2505 -20.2917
-6.85718 1.2505 -20.2917
-6.82725 1.23691 -20.0712
-6.92202 1.24593 -20.2177
-6.85663 1.21059 -19.6441
-7.12777 1.2505 -20.2917
-7.17287 1.2505 -20.2917
-7.19163 1.24593 -20.2177
-7.34377 1.26439 -20.5172
-7.30817 1.2505 -20.2917
-7.35327 1.2505 -20.2917
-7.16225 1.21059 -19.6441
-7.44346 1.2505 -20.2917
-7.48856 1.2505 -20.2917
-7.45177 1.23691 -20.0712
-7.66297 1.26439 -20.5172
-7.62386 1.2505 -20.2917
-7.66896 1.2505 -20.2917
-7.63021 1.23691 -20.0712
-7.75915 1.2505 -20.2917
-7.80425 1.2505 -20.2917
-7.76403 1.23691 -20.0712
-7.80864 1.23691 -20.0712
-7.79675 1.22801 -19.9268
-8.02975 1.2505 -20.2917
-8.03168 1.23691 -20.0712
-8.07629 1.23691 -20.0712
-8.09158 1.23244 -19.9987
-8.13603 1.23244 -19.9987
-8.43816 1.26439 -20.5172
-8.48376 1.26439 -20.5172
-8.34394 1.23691 -20.0712
-8.48073 1.2505 -20.2917
-8.71176 1.26439 -20.5172
-8.85576 1.2786 -20.7477
-8.90187 1.2786 -20.7477
-8.84856 1.26439 -20.5172
-8.89416 1.26439 -20.5172
-9.03096 1.26439 -20.5172
-8.97682 1.2505 -20.2917
-9.02192 1.2505 -20.2917
-8.96846 1.23691 -20.0712
-82.9202 11.3795 -184.655
-9.15721 1.2505 -20.2917
-9.20231 1.2505 -20.2917
-9.35016 1.26439 -20.5172
-9.39576 1.26439 -20.5172
-9.44136 1.26439 -20.5172
-1.09746 0.146266 10000
-9.53256 1.26439 -20.5172
-9.68578 1.2786 -20.7477
-9.66936 1.26439 -20.5172
-9.6082 1.2505 -20.2917
-9.6533 1.2505 -20.2917
-9.85176 1.26439 -20.5172
-9.97122 1.27383 -20.6703
-10.1689 1.29313 -20.9835
-10.333 1.30799 -21.2247
-10.2852 1.2786 -20.7477
-10.4487 1.29313 -20.9835
-10.4954 1.29313 -20.9835
-10.542 1.29313 -20.9835
-10.6819 1.29313 -20.9835
-10.7286 1.29313 -20.9835
-10.5814 1.26439 -20.5172
7.12818 1.37114 -23.0818
7.07688 1.37114 -23.0818
7.02558 1.37114 -23.0818
6.88818 1.35421 -22.7969
6.83751 1.35421 -22.7969
6.70408 1.3377 -22.5189
6.82038 1.37114 -23.0818
6.76908 1.37114 -23.0818
6.71778 1.37114 -23.0818
6.51259 1.37114 -23.0818
6.38152 1.35421 -22.7969
6.33085 1.35421 -22.7969
6.2036 1.3377 -22.5189
6.30739 1.37114 -23.0818
6.25609 1.37114 -23.0818
6.05345 1.3377 -22.5189
6.07752 1.35421 -22.7969
6.02685 1.35421 -22.7969
5.97618 1.35421 -22.7969
5.85326 1.3377 -22.5189
5.73329 1.32158 -22.2476
5.68384 1.32158 -22.2476
5.56732 1.30585 -21.9827
5.51847 1.30585 -21.9827
5.60301 1.3377 -22.5189
5.55297 1.3377 -22.5189
5.50292 1.3377 -22.5189
5.38717 1.32158 -22.2476
5.33773 1.32158 -22.2476
5.22532 1.30585 -21.9827
5.17647 1.30585 -21.9827
5.12761 1.30585 -21.9827
5.07875 1.30585 -21.9827
5.04105 1.32158 -22.2476
4.99161 1.32158 -22.2476
4.88333 1.30585 -21.9827
4.89272 1.32158 -22.2476
4.84327 1.32158 -22.2476
4.79382 1.32158 -22.2476
4.80224 1.3377 -22.5189
4.69493 1.32158 -22.2476
4.64549 1.32158 -22.2476
4.65209 1.3377 -22.5189
4.60204 1.3377 -22.5189
4.39476 1.30585 -21.9827
4.29477 1.29049 -21.7241
4.29704 1.30585 -21.9827
4.24819 1.30585 -21.9827
4.10164 1.29049 -21.7241
4.05336 1.29049 -21.7241
3.95851 1.27548 -21.4715
3.91079 1.27548 -21.4715
3.81535 1.27548 -21.4715
3.76763 1.27548 -21.4715
3.76367 1.29049 -21.7241
3.67218 1.27548 -21.4715
3.62446 1.27548 -21.4715
3.57674 1.27548 -21.4715
3.59877 1.30069 -21.8958
3.5501 1.30069 -21.8958
3.51533 1.30585 -21.9827
3.33814 1.27548 -21.4715
3.29042 1.27548 -21.4715
3.2427 1.27548 -21.4715
3.1704 1.26567 -21.3063
3.08772 1.29049 -21.7241
3.07562 1.30585 -21.9827
3.02676 1.30585 -21.9827
2.97791 1.30585 -21.9827
2.92905 1.30585 -21.9827
2.84631 1.29049 -21.7241
2.79803 1.29049 -21.7241
2.71777 1.27548 -21.4715
2.67005 1.27548 -21.4715
2.62233 1.27548 -21.4715
2.57461 1.27548 -21.4715
2.52689 1.27548 -21.4715
2.47917 1.27548 -21.4715
2.43145 1.27548 -21.4715
2.38373 1.27548 -21.4715
2.336 1.27548 -21.4715
2.23628 1.24649 -20.9835
2.18964 1.24649 -20.9835
2.14512 1.27548 -21.4715
2.13043 1.29557 -21.8096
1.95646 1.24649 -20.9835
1.87741 1.25601 -21.1437
1.8588 1.27548 -21.4715
1.81108 1.27548 -21.4715
1.76336 1.27548 -21.4715
1.69592 1.26082 -21.2247
1.64874 1.26082 -21.2247
1.62019 1.27548 -21.4715
1.57247 1.27548 -21.4715
1.4901 1.24649 -20.9835
1.47703 1.27548 -21.4715
1.42931 1.27548 -21.4715
1.38159 1.27548 -21.4715
1.2428 1.23249 -20.7477
1.21028 1.24649 -20.9835
1.16365 1.24649 -20.9835
1.12554 1.25601 -21.1437
1.09527 1.27548 -21.4715
1.04755 1.27548 -21.4715
0.988333 1.26082 -21.2247
0.941161 1.26082 -21.2247
0.88383 1.24649 -20.9835
0.837194 1.24649 -20.9835
0.743921 1.24649 -20.9835
0.697285 1.24649 -20.9835
0.660659 1.26567 -21.3063
0.610956 1.26082 -21.2247
0.563784 1.26082 -21.2247
0.510741 1.24649 -20.9835
0.322256 0.962204 -16.1978
0.370832 1.24649 -20.9835
0.251729 0.967864 -16.2931
0.27756 1.24649 -20.9835
0.180193 1.21879 -20.5172
0.136105 1.23249 -20.7477
0.0438809 1.23249 -20.7477
-0.00225661 1.24649 -20.9835
-0.0488927 1.24649 -20.9835
-0.0944555 1.23249 -20.7477
-0.140568 1.23249 -20.7477
-0.184606 1.21879 -20.5172
-0.230205 1.21879 -20.5172
-0.278904 1.23249 -20.7477
-0.369743 1.22789 -20.6703
-0.421982 1.24649 -20.9835
-0.582069 1.1923 -20.0712
-0.596424 1.13474 -19.1022
-0.638879 1.13474 -19.1022
-1.20851 0.806554 -13.5776
-1.57063 0.806554 -13.5776
-1.6008 0.806554 -13.5776
-1.64503 0.798723 -13.4457
-1.66682 0.794865 -13.3808
-1.69656 0.794865 -13.3808
-1.7389 0.800667 -13.4784
-1.75604 0.794865 -13.3808
-1.74366 0.776118 -13.0652
-1.84821 0.783509 -13.1896
-1.85981 0.776118 -13.0652
-1.88469 0.75131 -12.6476
-2.02063 0.749599 -12.6188
-2.09581 0.756492 -12.7348
-2.12412 0.756492 -12.7348
-2.21971 0.741158 -12.4767
-2.24744 0.741158 -12.4767
-2.27517 0.741158 -12.4767
-2.31856 0.746199 -12.5615
-2.39066 0.75131 -12.6476
-2.39688 0.744511 -12.5331
-2.42474 0.744511 -12.5331
-2.44155 0.741158 -12.4767
-2.69832 0.783509 -13.1896
-2.80631 0.789146 -13.2845
-2.83583 0.789146 -13.2845
-2.91586 0.794865 -13.3808
-2.9456 0.794865 -13.3808
-2.96215 0.783509 -13.1896
-3.01298 0.789146 -13.2845
-3.04251 0.789146 -13.2845
-3.07203 0.789146 -13.2845
-3.0794 0.783509 -13.1896
-3.17679 0.800667 -13.4784
-3.20675 0.800667 -13.4784
-3.2367 0.800667 -13.4784
-3.21966 0.789146 -13.2845
-3.27273 0.794865 -13.3808
-3.35103 0.806554 -13.5776
-5.78514 1.24649 -20.9835
-5.73587 1.18799 -19.9987
-5.90394 1.2134 -20.4264
-5.91011 1.2054 -20.2917
-5.95521 1.2054 -20.2917
-6.06698 1.21879 -20.5172
-5.89613 1.16693 -19.6441
-6.1807 1.2054 -20.2917
-6.2258 1.2054 -20.2917
-6.20274 1.1923 -20.0712
-6.24734 1.1923 -20.0712
-6.36109 1.2054 -20.2917
-6.40619 1.2054 -20.2917
-6.44914 1.19663 -20.1441
-6.49392 1.19663 -20.1441
-6.515 1.1923 -20.0712
-6.5596 1.1923 -20.0712
-6.5567 1.18372 -19.9268
-6.60099 1.18372 -19.9268
-6.62146 1.17948 -19.8553
-6.81208 1.2054 -20.2917
-6.85718 1.2054 -20.2917
-6.82725 1.1923 -20.0712
-6.99248 1.2054 -20.2917
-7.03758 1.2054 -20.2917
-7.00569 1.1923 -20.0712
-7.12777 1.2054 -20.2917
-7.17287 1.2054 -20.2917
-7.13951 1.1923 -20.0712
-7.18412 1.1923 -20.0712
-7.151 1.17948 -19.8553
-7.19513 1.17948 -19.8553
-7.23926 1.17948 -19.8553
-7.45177 1.1923 -20.0712
-7.57876 1.2054 -20.2917
-7.65189 1.20983 -20.3663
-7.79977 1.21879 -20.5172
-7.75915 1.2054 -20.2917
-7.80425 1.2054 -20.2917
-7.76403 1.1923 -20.0712
-7.80864 1.1923 -20.0712
-7.79675 1.18372 -19.9268
-7.84104 1.18372 -19.9268
-8.11897 1.21879 -20.5172
-8.1498 1.20983 -20.3663
-8.25576 1.21879 -20.5172
-8.21014 1.2054 -20.2917
-8.25524 1.2054 -20.2917
-8.21012 1.1923 -20.0712
-8.34544 1.2054 -20.2917
-8.39054 1.2054 -20.2917
-8.34394 1.1923 -20.0712
-8.38855 1.1923 -20.0712
-8.43316 1.1923 -20.0712
-8.47777 1.1923 -20.0712
-8.52238 1.1923 -20.0712
-8.66113 1.2054 -20.2917
-8.70623 1.2054 -20.2917
-8.71939 1.201 -20.2177
-8.70081 1.1923 -20.0712
-8.84152 1.2054 -20.2917
-8.88662 1.2054 -20.2917
-9.03096 1.21879 -20.5172
-9.04307 1.21429 -20.4415
-9.0885 1.21429 -20.4415
-9.16776 1.21879 -20.5172
-9.15721 1.2054 -20.2917
-9.20231 1.2054 -20.2917
-9.35016 1.21879 -20.5172
-9.39576 1.21879 -20.5172
-9.44136 1.21879 -20.5172
-1.09746 0.140991 10000
-9.53256 1.21879 -20.5172
-9.68578 1.23249 -20.7477
-9.84248 1.24649 -20.9835
-9.88912 1.24649 -20.9835
-9.93575 1.24649 -20.9835
-9.98239 1.24649 -20.9835
-10.029 1.24649 -20.9835
-9.96245 1.23249 -20.7477
-10.1223 1.24649 -20.9835
-10.1689 1.24649 -20.9835
-10.2156 1.24649 -20.9835
-10.2391 1.23249 -20.7477
-10.4021 1.24649 -20.9835
-10.4487 1.24649 -20.9835
-10.4954 1.24649 -20.9835
-10.542 1.24649 -20.9835
-10.6819 1.24649 -20.9835
-10.6479 1.23712 -20.8257
7.21841 1.33655 -23.374
7.16646 1.33655 -23.374
6.97428 1.31984 -23.0818
6.87168 1.31984 -23.0818
6.82038 1.31984 -23.0818
6.76908 1.31984 -23.0818
6.71778 1.31984 -23.0818
6.40379 1.28765 -22.5189
6.35374 1.28765 -22.5189
6.22775 1.27214 -22.2476
6.1783 1.27214 -22.2476
6.05589 1.25699 -21.9827
6.22952 1.30355 -22.7969
6.17885 1.30355 -22.7969
6.05345 1.28765 -22.5189
6.0034 1.28765 -22.5189
5.99959 1.31984 -23.0818
5.87485 1.30355 -22.7969
5.82419 1.30355 -22.7969
5.70311 1.28765 -22.5189
5.60301 1.28765 -22.5189
5.62152 1.30355 -22.7969
5.50292 1.28765 -22.5189
5.22532 1.25699 -21.9827
5.17647 1.25699 -21.9827
5.12761 1.25699 -21.9827
5.07875 1.25699 -21.9827
5.0299 1.25699 -21.9827
5.04105 1.27214 -22.2476
4.99161 1.27214 -22.2476
4.88333 1.25699 -21.9827
4.89272 1.27214 -22.2476
4.84327 1.27214 -22.2476
4.73675 1.25699 -21.9827
4.74438 1.27214 -22.2476
4.58446 1.2422 -21.7241
4.53618 1.2422 -21.7241
4.65209 1.28765 -22.5189
4.60204 1.28765 -22.5189
4.39476 1.25699 -21.9827
4.3459 1.25699 -21.9827
4.29704 1.25699 -21.9827
4.24819 1.25699 -21.9827
4.19933 1.25699 -21.9827
4.15047 1.25699 -21.9827
4.05276 1.25699 -21.9827
4.0039 1.25699 -21.9827
4.0027 1.27214 -22.2476
3.95325 1.27214 -22.2476
3.85733 1.25699 -21.9827
3.80847 1.25699 -21.9827
3.71539 1.2422 -21.7241
3.57674 1.22776 -21.4715
3.59877 1.25202 -21.8958
3.5501 1.25202 -21.8958
3.51533 1.25699 -21.9827
3.39071 1.24709 -21.8096
3.31991 1.25699 -21.9827
3.09954 1.22776 -21.4715
3.05182 1.22776 -21.4715
3.03944 1.2422 -21.7241
2.95637 1.22776 -21.4715
2.97791 1.25699 -21.9827
2.92905 1.25699 -21.9827
2.84631 1.2422 -21.7241
2.79803 1.2422 -21.7241
2.68653 1.21365 -21.2247
2.67005 1.22776 -21.4715
2.62233 1.22776 -21.4715
2.57461 1.22776 -21.4715
2.52689 1.22776 -21.4715
2.47917 1.22776 -21.4715
2.41274 1.21832 -21.3063
2.336 1.22776 -21.4715
2.23628 1.19986 -20.9835
2.18964 1.19986 -20.9835
2.14512 1.22776 -21.4715
2.13043 1.24709 -21.8096
2.08196 1.24709 -21.8096
2.00196 1.22776 -21.4715
1.95424 1.22776 -21.4715
1.90652 1.22776 -21.4715
1.8588 1.22776 -21.4715
1.81108 1.22776 -21.4715
1.76336 1.22776 -21.4715
1.69592 1.21365 -21.2247
1.64874 1.21365 -21.2247
1.58337 1.19986 -20.9835
1.53674 1.19986 -20.9835
1.44346 1.19986 -20.9835
1.42931 1.22776 -21.4715
1.38159 1.22776 -21.4715
1.32361 1.21832 -21.3063
1.25692 1.19986 -20.9835
1.23843 1.22776 -21.4715
1.16365 1.19986 -20.9835
1.11701 1.19986 -20.9835
1.07037 1.19986 -20.9835
0.966123 1.18637 -20.7477
0.920011 1.18637 -20.7477
0.864189 1.17319 -20.5172
0.827787 1.18637 -20.7477
0.81209 1.23254 -21.555
0.697285 1.19986 -20.9835
0.660659 1.21832 -21.3063
0.610956 1.21365 -21.2247
0.563784 1.21365 -21.2247
0.510741 1.19986 -20.9835
0.464105 1.19986 -20.9835
0.417469 1.19986 -20.9835
0.370832 1.19986 -20.9835
0.226423 0.837995 -14.6551
0.27756 1.19986 -20.9835
0.230053 1.19533 -20.9043
0.183592 1.19533 -20.9043
0.137652 1.19986 -20.9835
0.0910157 1.19986 -20.9835
0.0443795 1.19986 -20.9835
-0.00225661 1.19986 -20.9835
-0.0488927 1.19986 -20.9835
-0.0955289 1.19986 -20.9835
-0.184606 1.17319 -20.5172
-0.232792 1.18637 -20.7477
-0.282073 1.19986 -20.9835
-0.32871 1.19986 -20.9835
-0.375346 1.19986 -20.9835
-0.421982 1.19986 -20.9835
-0.582069 1.14769 -20.0712
-0.596424 1.09228 -19.1022
-1.01938 0.844699 -14.7724
-1.19592 0.787965 -13.7802
-1.191 0.765126 -13.3808
-1.46573 0.76884 -13.4457
-1.49561 0.76884 -13.4457
-1.51813 0.765126 -13.3808
-1.6008 0.776377 -13.5776
-1.61908 0.77071 -13.4784
-1.64903 0.77071 -13.4784
-1.66682 0.765126 -13.3808
-1.71388 0.759621 -13.2845
-1.78578 0.765126 -13.3808
-1.8978 0.750621 -13.1271
-1.89769 0.728189 -12.7348
-1.92599 0.728189 -12.7348
-1.99258 0.721554 -12.6188
-2.02063 0.721554 -12.6188
-2.09581 0.728189 -12.7348
-2.12412 0.728189 -12.7348
-2.10879 0.713428 -12.4767
-2.12218 0.70864 -12.3929
-2.14972 0.70864 -12.3929
-2.21472 0.711825 -12.4486
-2.23236 0.70864 -12.3929
-2.27517 0.713428 -12.4767
-2.3029 0.713428 -12.4767
-2.36255 0.723201 -12.6476
-2.39066 0.723201 -12.6476
-2.40778 0.719914 -12.5901
-2.43576 0.719914 -12.5901
-2.60251 0.743573 -13.0039
-2.66971 0.7462 -13.0498
-2.80631 0.759621 -13.2845
-2.83583 0.759621 -13.2845
-2.91586 0.765126 -13.3808
-2.9456 0.765126 -13.3808
-2.96215 0.754195 -13.1896
-3.0794 0.754195 -13.1896
-3.17679 0.77071 -13.4784
-3.20675 0.77071 -13.4784
-3.2367 0.77071 -13.4784
-3.21966 0.759621 -13.2845
-3.27273 0.765126 -13.3808
-3.35103 0.776377 -13.5776
-5.79338 1.17319 -20.5172
-5.88458 1.17319 -20.5172
-5.88657 1.16457 -20.3663
-5.95521 1.1603 -20.2917
-6.06698 1.17319 -20.5172
-6.02334 1.15607 -20.2177
-5.89613 1.12327 -19.6441
-6.1356 1.1603 -20.2917
-6.20274 1.14769 -20.0712
-6.24734 1.14769 -20.0712
-6.2243 1.13535 -19.8553
-6.26843 1.13535 -19.8553
-6.52297 1.17319 -20.5172
-6.56857 1.17319 -20.5172
-6.47039 1.14769 -20.0712
-6.515 1.14769 -20.0712
-6.5596 1.14769 -20.0712
-6.5332 1.13535 -19.8553
-6.57733 1.13535 -19.8553
-6.76698 1.1603 -20.2917
-6.81208 1.1603 -20.2917
-6.85718 1.1603 -20.2917
-6.82725 1.14769 -20.0712
-6.94738 1.1603 -20.2917
-6.99248 1.1603 -20.2917
-7.03758 1.1603 -20.2917
-7.00569 1.14769 -20.0712
-7.12777 1.1603 -20.2917
-7.17287 1.1603 -20.2917
-7.23656 1.15607 -20.2177
-7.30817 1.1603 -20.2917
-7.35327 1.1603 -20.2917
-7.48057 1.17319 -20.5172
-7.45177 1.14769 -20.0712
-7.57876 1.1603 -20.2917
-7.65189 1.16457 -20.3663
-7.69715 1.16457 -20.3663
-7.79977 1.17319 -20.5172
-7.75915 1.1603 -20.2917
-7.80425 1.1603 -20.2917
-7.76403 1.14769 -20.0712
-7.86564 1.15607 -20.2177
-8.21019 1.18637 -20.7477
-8.03168 1.14769 -20.0712
-8.07629 1.14769 -20.0712
-8.1209 1.14769 -20.0712
-8.16551 1.14769 -20.0712
-8.34544 1.1603 -20.2917
-8.39054 1.1603 -20.2917
-8.34394 1.14769 -20.0712
-8.44978 1.15607 -20.2177
-8.71176 1.17319 -20.5172
-8.66113 1.1603 -20.2917
-8.70623 1.1603 -20.2917
-8.71939 1.15607 -20.2177
-8.84152 1.1603 -20.2917
-8.88662 1.1603 -20.2917
-9.03096 1.17319 -20.5172
-9.07656 1.17319 -20.5172
-9.12216 1.17319 -20.5172
-9.15721 1.1603 -20.2917
-9.20231 1.1603 -20.2917
-9.56266 1.19986 -20.9835
-15.1907 1.89678 -33.1715
-15.2645 1.89678 -33.1715
-9.48696 1.17319 -20.5172
-9.53256 1.17319 -20.5172
-9.57816 1.17319 -20.5172
-9.73189 1.18637 -20.7477
-9.88912 1.19986 -20.9835
-9.76923 1.17975 -20.6318
-9.81509 1.17975 -20.6318
-9.80616 1.17319 -20.5172
-9.85176 1.17319 -20.5172
-9.89736 1.17319 -20.5172
-10.0172 1.18195 -20.6703
-9.98856 1.17319 -20.5172
-10.1469 1.18637 -20.7477
-10.193 1.18637 -20.7477
-10.1254 1.17319 -20.5172
-10.171 1.17319 -20.5172
-10.2166 1.17319 -20.5172
-10.542 1.19986 -20.9835
-10.6819 1.19986 -20.9835
-10.6479 1.19083 -20.8257
-10.6541 1.18637 -20.7477
-10.7002 1.18637 -20.7477
7.21841 1.2846 -23.374
7.16646 1.2846 -23.374
7.02558 1.26854 -23.0818
6.87168 1.26854 -23.0818
6.73618 1.25288 -22.7969
6.68551 1.25288 -22.7969
6.55394 1.2376 -22.5189
6.66648 1.26854 -23.0818
6.61518 1.26854 -23.0818
6.56388 1.26854 -23.0818
6.51259 1.26854 -23.0818
6.22952 1.25288 -22.7969
6.17885 1.25288 -22.7969
6.05345 1.2376 -22.5189
6.0034 1.2376 -22.5189
5.85326 1.2376 -22.5189
5.82689 1.24265 -22.6108
5.70311 1.2376 -22.5189
5.60301 1.2376 -22.5189
5.62152 1.25288 -22.7969
5.50292 1.2376 -22.5189
5.22532 1.20814 -21.9827
5.17647 1.20814 -21.9827
5.12761 1.20814 -21.9827
5.07875 1.20814 -21.9827
4.98104 1.20814 -21.9827
4.93218 1.20814 -21.9827
4.94216 1.22269 -22.2476
4.89272 1.22269 -22.2476
4.84327 1.22269 -22.2476
4.6879 1.20814 -21.9827
4.63904 1.20814 -21.9827
4.54133 1.20814 -21.9827
4.49247 1.20814 -21.9827
4.44361 1.20814 -21.9827
4.39476 1.20814 -21.9827
4.3459 1.20814 -21.9827
4.24819 1.20814 -21.9827
4.19933 1.20814 -21.9827
4.15047 1.20814 -21.9827
4.05336 1.19392 -21.7241
4.00508 1.19392 -21.7241
4.0027 1.22269 -22.2476
3.95325 1.22269 -22.2476
3.85733 1.20814 -21.9827
3.80847 1.20814 -21.9827
3.6671 1.19392 -21.7241
3.61882 1.19392 -21.7241
3.57054 1.19392 -21.7241
3.52226 1.19392 -21.7241
3.47398 1.19392 -21.7241
3.46648 1.20814 -21.9827
3.41762 1.20814 -21.9827
3.36876 1.20814 -21.9827
3.31991 1.20814 -21.9827
3.27105 1.20814 -21.9827
3.18428 1.19392 -21.7241
3.136 1.19392 -21.7241
3.05182 1.18004 -21.4715
3.00409 1.18004 -21.4715
2.95637 1.18004 -21.4715
2.90865 1.18004 -21.4715
2.86093 1.18004 -21.4715
2.79157 1.17096 -21.3063
2.74422 1.17096 -21.3063
2.656 1.15322 -20.9835
2.57461 1.18004 -21.4715
2.52689 1.18004 -21.4715
2.47917 1.18004 -21.4715
2.41274 1.17096 -21.3063
2.36539 1.17096 -21.3063
2.30034 1.16202 -21.1437
2.28828 1.18004 -21.4715
2.19284 1.18004 -21.4715
2.14512 1.18004 -21.4715
2.0974 1.18004 -21.4715
1.95646 1.15322 -20.9835
1.90982 1.15322 -20.9835
1.90652 1.18004 -21.4715
1.8588 1.18004 -21.4715
1.76992 1.15322 -20.9835
1.72328 1.15322 -20.9835
1.69592 1.16648 -21.2247
1.64874 1.16648 -21.2247
1.58337 1.15322 -20.9835
1.53674 1.15322 -20.9835
1.48857 1.18926 -21.6392
1.42931 1.18004 -21.4715
1.32361 1.17096 -21.3063
1.27626 1.17096 -21.3063
1.21028 1.15322 -20.9835
1.17702 1.16648 -21.2247
1.12985 1.16648 -21.2247
1.07037 1.15322 -20.9835
0.977102 1.15322 -20.9835
0.941161 1.16648 -21.2247
0.864189 1.12759 -20.5172
0.827787 1.14026 -20.7477
0.81209 1.18463 -21.555
0.764184 1.18463 -21.555
0.713501 1.18004 -21.4715
0.597226 1.14026 -20.7477
0.551114 1.14026 -20.7477
0.510741 1.15322 -20.9835
0.319072 0.792839 -14.4261
0.362592 1.12759 -20.5172
0.228234 0.811867 -14.7724
0.27756 1.15322 -20.9835
0.228329 1.14026 -20.7477
0.182217 1.14026 -20.7477
0.134593 1.12759 -20.5172
0.0910157 1.15322 -20.9835
0.0438809 1.14026 -20.7477
-0.00225661 1.15322 -20.9835
-0.0488927 1.15322 -20.9835
-0.0977505 1.18004 -21.4715
-0.143799 1.16648 -21.2247
-0.190971 1.16648 -21.2247
-0.235437 1.15322 -20.9835
-0.32871 1.15322 -20.9835
-0.375346 1.15322 -20.9835
-0.421982 1.15322 -20.9835
-0.600566 1.05712 -19.2349
-1.01938 0.811867 -14.7724
-1.20946 0.765912 -13.9362
-1.20851 0.746201 -13.5776
-1.40938 0.740754 -13.4784
-1.43934 0.740754 -13.4784
-1.49561 0.738956 -13.4457
-1.52921 0.740754 -13.4784
-1.55916 0.740754 -13.4784
-1.58912 0.740754 -13.4784
-1.66682 0.735387 -13.3808
-1.69656 0.735387 -13.3808
-1.7263 0.735387 -13.3808
-1.75604 0.735387 -13.3808
-1.78578 0.735387 -13.3808
-1.86683 0.709674 -12.9129
-1.89553 0.709674 -12.9129
-1.91087 0.704745 -12.8232
-1.93937 0.704745 -12.8232
-1.98163 0.709674 -12.9129
-2.05335 0.695091 -12.6476
-2.08146 0.695091 -12.6476
-2.10957 0.695091 -12.6476
-2.12314 0.690363 -12.5615
-2.18705 0.684157 -12.4486
-2.21472 0.684157 -12.4486
-2.23236 0.681096 -12.3929
-2.27517 0.685698 -12.4767
-2.33444 0.695091 -12.6476
-2.36255 0.695091 -12.6476
-2.39066 0.695091 -12.6476
-2.41877 0.695091 -12.6476
-2.45815 0.690363 -12.5615
-2.48607 0.690363 -12.5615
-2.56637 0.704745 -12.8232
-2.72763 0.724881 -13.1896
-2.57315 0.676556 -12.3103
-2.54952 0.66329 -12.0689
-2.57634 0.66329 -12.0689
-2.80482 0.714671 -13.0039
-2.93283 0.724881 -13.1896
-2.98346 0.730096 -13.2845
-3.04251 0.730096 -13.2845
-3.07203 0.730096 -13.2845
-3.12403 0.735387 -13.3808
-3.15377 0.735387 -13.3808
-3.20675 0.740754 -13.4784
-3.2367 0.740754 -13.4784
-3.24299 0.735387 -13.3808
-3.27273 0.735387 -13.3808
-5.80633 1.08732 -19.7844
-6.20486 1.15322 -20.9835
-5.9154 1.09122 -19.8553
-5.95952 1.09122 -19.8553
-6.20377 1.12759 -20.5172
-6.1807 1.1152 -20.2917
-6.2258 1.1152 -20.2917
-6.20274 1.10308 -20.0712
-6.24734 1.10308 -20.0712
-6.2243 1.09122 -19.8553
-6.26843 1.09122 -19.8553
-6.38117 1.10308 -20.0712
-6.40258 1.0991 -19.9987
-6.44703 1.0991 -19.9987
-6.515 1.10308 -20.0712
-6.5596 1.10308 -20.0712
-6.58037 1.0991 -19.9987
-6.62482 1.0991 -19.9987
-6.69343 1.10308 -20.0712
-6.78265 1.10308 -20.0712
-6.82725 1.10308 -20.0712
-6.87186 1.10308 -20.0712
-6.8421 1.09122 -19.8553
-6.88623 1.09122 -19.8553
-7.12777 1.1152 -20.2917
-7.17287 1.1152 -20.2917
-7.23656 1.11113 -20.2177
-7.30817 1.1152 -20.2917
-7.35327 1.1152 -20.2917
-7.48057 1.12759 -20.5172
-7.44346 1.1152 -20.2917
-7.48856 1.1152 -20.2917
-7.45177 1.10308 -20.0712
-7.49638 1.10308 -20.0712
-7.4599 1.09122 -19.8553
-7.50403 1.09122 -19.8553
-7.63021 1.10308 -20.0712
-7.75915 1.1152 -20.2917
-7.80425 1.1152 -20.2917
-7.76403 1.10308 -20.0712
-7.89445 1.1152 -20.2917
-7.93955 1.1152 -20.2917
-7.98465 1.1152 -20.2917
-8.11897 1.12759 -20.5172
-8.03168 1.10308 -20.0712
-8.07629 1.10308 -20.0712
-8.06248 1.09514 -19.9268
-8.10676 1.09514 -19.9268
-8.34544 1.1152 -20.2917
-8.39054 1.1152 -20.2917
-8.34394 1.10308 -20.0712
-8.44978 1.11113 -20.2177
-8.80965 1.14026 -20.7477
-8.66113 1.1152 -20.2917
-8.70623 1.1152 -20.2917
-8.75132 1.1152 -20.2917
-8.89416 1.12759 -20.5172
-8.84152 1.1152 -20.2917
-8.88662 1.1152 -20.2917
-9.03096 1.12759 -20.5172
-8.97682 1.1152 -20.2917
-9.02192 1.1152 -20.2917
-9.16776 1.12759 -20.5172
-9.21336 1.12759 -20.5172
-9.25896 1.12759 -20.5172
-9.30456 1.12759 -20.5172
-9.35016 1.12759 -20.5172
-1.11412 0.133707 -2.43287
-1.11953 0.133707 -2.43287
-9.28072 1.10308 -20.0712
-9.4278 1.1152 -20.2917
-9.57816 1.12759 -20.5172
-4.60712 0.539805 -9.82206
-9.66936 1.12759 -20.5172
-9.6082 1.1152 -20.2917
-9.6533 1.1152 -20.2917
-9.80616 1.12759 -20.5172
-9.85176 1.12759 -20.5172
-9.97122 1.13601 -20.6703
-9.98856 1.12759 -20.5172
-10.1469 1.14026 -20.7477
-10.193 1.14026 -20.7477
-10.1254 1.12759 -20.5172
-10.171 1.12759 -20.5172
-10.2166 1.12759 -20.5172
-10.2622 1.12759 -20.5172
-10.399 1.12759 -20.5172
-10.4446 1.12759 -20.5172
-10.4902 1.12759 -20.5172
-10.5358 1.12759 -20.5172
-10.5814 1.12759 -20.5172
7.21841 1.23265 -23.374
7.16646 1.23265 -23.374
6.97428 1.21724 -23.0818
6.92298 1.21724 -23.0818
6.87168 1.21724 -23.0818
6.90672 1.23265 -23.374
6.50389 1.18755 -22.5189
6.45384 1.18755 -22.5189
6.40379 1.18755 -22.5189
6.2036 1.18755 -22.5189
6.22952 1.20221 -22.7969
6.17885 1.20221 -22.7969
6.0034 1.18755 -22.5189
5.85326 1.18755 -22.5189
5.82689 1.1924 -22.6108
5.77664 1.1924 -22.6108
5.56732 1.15928 -21.9827
5.65306 1.18755 -22.5189
5.60301 1.18755 -22.5189
5.55297 1.18755 -22.5189
5.50292 1.18755 -22.5189
5.45287 1.18755 -22.5189
5.40282 1.18755 -22.5189
5.35277 1.18755 -22.5189
5.36819 1.20221 -22.7969
5.31752 1.20221 -22.7969
5.0299 1.15928 -21.9827
4.98104 1.15928 -21.9827
5.00243 1.18755 -22.5189
4.77465 1.16855 -22.1586
4.63275 1.14564 -21.7241
4.59018 1.15928 -21.9827
4.54133 1.15928 -21.9827
4.49247 1.15928 -21.9827
4.44361 1.15928 -21.9827
4.39476 1.15928 -21.9827
4.3459 1.15928 -21.9827
4.19711 1.13232 -21.4715
4.24819 1.15928 -21.9827
4.19933 1.15928 -21.9827
4.15047 1.15928 -21.9827
4.05336 1.14564 -21.7241
4.00508 1.14564 -21.7241
3.91079 1.13232 -21.4715
3.90851 1.14564 -21.7241
3.86023 1.14564 -21.7241
3.76763 1.13232 -21.4715
3.7199 1.13232 -21.4715
3.75962 1.15928 -21.9827
3.57674 1.13232 -21.4715
3.61305 1.15928 -21.9827
3.52226 1.14564 -21.7241
3.47398 1.14564 -21.7241
3.38586 1.13232 -21.4715
3.33814 1.13232 -21.4715
3.29042 1.13232 -21.4715
3.2427 1.13232 -21.4715
3.27105 1.15928 -21.9827
3.18428 1.14564 -21.7241
3.136 1.14564 -21.7241
3.05182 1.13232 -21.4715
3.00409 1.13232 -21.4715
2.90865 1.13232 -21.4715
2.86093 1.13232 -21.4715
2.79157 1.12361 -21.3063
2.656 1.10658 -20.9835
2.62233 1.13232 -21.4715
2.57461 1.13232 -21.4715
2.58705 1.15928 -21.9827
2.46005 1.14564 -21.7241
2.41177 1.14564 -21.7241
2.336 1.13232 -21.4715
2.28828 1.13232 -21.4715
2.19284 1.13232 -21.4715
2.14512 1.13232 -21.4715
2.0974 1.13232 -21.4715
2.02612 1.1193 -21.2247
1.97895 1.1193 -21.2247
1.90982 1.10658 -20.9835
1.8846 1.1193 -21.2247
1.83743 1.1193 -21.2247
1.81108 1.13232 -21.4715
1.76336 1.13232 -21.4715
1.70244 1.12361 -21.3063
1.65509 1.12361 -21.3063
1.53674 1.10658 -20.9835
1.53667 1.14116 -21.6392
1.48857 1.14116 -21.6392
1.42931 1.13232 -21.4715
1.38159 1.13232 -21.4715
1.31854 1.1193 -21.2247
1.27137 1.1193 -21.2247
1.21028 1.10658 -20.9835
1.19071 1.13232 -21.4715
1.07037 1.10658 -20.9835
1.03155 1.11503 -21.1437
0.999825 1.13232 -21.4715
0.941161 1.1193 -21.2247
0.893989 1.1193 -21.2247
0.837194 1.10658 -20.9835
0.799644 1.1193 -21.2247
0.752472 1.1193 -21.2247
0.697285 1.10658 -20.9835
0.650649 1.10658 -20.9835
0.544991 1.08199 -20.5172
0.499391 1.08199 -20.5172
0.314163 0.749072 -14.2042
0.422267 1.1193 -21.2247
0.375095 1.1193 -21.2247
0.226423 0.772852 -14.6551
0.27756 1.10658 -20.9835
0.228329 1.09415 -20.7477
0.182217 1.09415 -20.7477
0.134593 1.08199 -20.5172
0.0889931 1.08199 -20.5172
-0.00225661 1.10658 -20.9835
-0.0488927 1.10658 -20.9835
-0.0977505 1.13232 -21.4715
-0.143799 1.1193 -21.2247
-0.190971 1.1193 -21.2247
-0.235437 1.10658 -20.9835
-0.275805 1.08199 -20.5172
-0.321405 1.08199 -20.5172
-0.375346 1.10658 -20.9835
-0.421982 1.10658 -20.9835
-0.617583 0.973794 -18.4655
-0.918908 0.702255 -13.3164
-1.22965 0.710798 -13.4784
-1.2596 0.710798 -13.4784
-1.41975 0.716025 -13.5776
-1.44992 0.716025 -13.5776
-1.54787 0.705648 -13.3808
-1.593 0.712532 -13.5113
-1.61908 0.710798 -13.4784
-1.64903 0.710798 -13.4784
-1.66682 0.705648 -13.3808
-1.7048 0.709073 -13.4457
-1.75604 0.705648 -13.3808
-1.78578 0.705648 -13.3808
-1.89331 0.690634 -13.0961
-1.96668 0.68577 -13.0039
-2.00974 0.690634 -13.0961
-2.09101 0.670042 -12.7056
-2.05331 0.649196 -12.3103
-2.14748 0.670042 -12.7056
-2.17572 0.670042 -12.7056
-2.18392 0.66395 -12.5901
-2.20689 0.662445 -12.5615
-2.23481 0.662445 -12.5615
-2.40778 0.66395 -12.5901
-2.47499 0.666982 -12.6476
-2.75695 0.695567 -13.1896
-2.80631 0.700571 -13.2845
-2.83583 0.700571 -13.2845
-2.88612 0.705648 -13.3808
-2.95393 0.700571 -13.2845
-3.00508 0.705648 -13.3808
-3.03481 0.705648 -13.3808
-3.04251 0.700571 -13.2845
-3.07203 0.700571 -13.2845
-3.14684 0.710798 -13.4784
-3.20015 0.716025 -13.5776
-3.20675 0.710798 -13.4784
-3.2367 0.710798 -13.4784
-3.24299 0.705648 -13.3808
-3.29662 0.710798 -13.4784
-3.35103 0.716025 -13.5776
-5.8988 1.1193 -21.2247
-5.83898 1.08199 -20.5172
-5.86501 1.0701 -20.2917
-5.91011 1.0701 -20.2917
-5.92267 1.06426 -20.1808
-6.01352 1.07246 -20.3364
-6.20449 1.09826 -20.8257
-6.27437 1.10241 -20.9043
-6.06891 1.05847 -20.0712
-6.1807 1.0701 -20.2917
-6.2258 1.0701 -20.2917
-6.20274 1.05847 -20.0712
-6.24734 1.05847 -20.0712
-6.29195 1.05847 -20.0712
-6.33656 1.05847 -20.0712
-6.52297 1.08199 -20.5172
-6.44703 1.05465 -19.9987
-6.515 1.05847 -20.0712
-6.5596 1.05847 -20.0712
-6.58037 1.05465 -19.9987
-6.62482 1.05465 -19.9987
-6.69343 1.05847 -20.0712
-6.66559 1.04709 -19.8553
-6.70971 1.04709 -19.8553
-6.82725 1.05847 -20.0712
-6.97292 1.07404 -20.3663
-6.99248 1.0701 -20.2917
-7.03758 1.0701 -20.2917
-7.16137 1.08199 -20.5172
-7.16715 1.07602 -20.4038
-7.13951 1.05847 -20.0712
-7.18412 1.05847 -20.0712
-7.151 1.04709 -19.8553
-7.19513 1.04709 -19.8553
-7.31795 1.05847 -20.0712
-7.44346 1.0701 -20.2917
-7.48856 1.0701 -20.2917
-7.45177 1.05847 -20.0712
-7.66297 1.08199 -20.5172
-7.62386 1.0701 -20.2917
-7.66896 1.0701 -20.2917
-7.79977 1.08199 -20.5172
-7.73084 1.0662 -20.2177
-7.77577 1.0662 -20.2177
-7.76403 1.05847 -20.0712
-7.80864 1.05847 -20.0712
-7.79675 1.05086 -19.9268
-7.84104 1.05086 -19.9268
-8.03168 1.05847 -20.0712
-8.07629 1.05847 -20.0712
-8.06248 1.05086 -19.9268
-8.21012 1.05847 -20.0712
-8.62994 1.10658 -20.9835
-8.34394 1.05847 -20.0712
-8.52583 1.0701 -20.2917
-8.57093 1.0701 -20.2917
-8.71176 1.08199 -20.5172
-3.98733 0.492644 -9.34172
-4.00809 0.492644 -9.34172
-8.6562 1.05847 -20.0712
-8.89416 1.08199 -20.5172
-8.84152 1.0701 -20.2917
-8.88662 1.0701 -20.2917
-9.03096 1.08199 -20.5172
-8.94406 1.0662 -20.2177
-8.98899 1.0662 -20.2177
-8.96846 1.05847 -20.0712
-9.01307 1.05847 -20.0712
-9.36299 1.09415 -20.7477
-9.51603 1.10658 -20.9835
-1.11412 0.1283 -2.43287
-1.11953 0.1283 -2.43287
-9.28072 1.05847 -20.0712
-9.4278 1.0701 -20.2917
-9.72219 1.09826 -20.8257
-9.84248 1.10658 -20.9835
-9.82411 1.09415 -20.7477
-9.87023 1.09415 -20.7477
-9.91634 1.09415 -20.7477
-9.85176 1.08199 -20.5172
-10.0086 1.09415 -20.7477
-10.1689 1.10658 -20.9835
-10.0342 1.08199 -20.5172
-10.0798 1.08199 -20.5172
-10.2391 1.09415 -20.7477
-10.4021 1.10658 -20.9835
-10.4487 1.10658 -20.9835
-10.6023 1.11291 -21.1034
-10.6353 1.10658 -20.9835
-10.6819 1.10658 -20.9835
-10.7286 1.10658 -20.9835
-10.6541 1.09415 -20.7477
-10.7002 1.09415 -20.7477
7.04018 1.15155 -22.7969
6.98951 1.15155 -22.7969
7.02558 1.16594 -23.0818
6.97428 1.16594 -23.0818
6.92298 1.16594 -23.0818
6.87168 1.16594 -23.0818
6.50389 1.1375 -22.5189
6.45384 1.1375 -22.5189
6.40379 1.1375 -22.5189
6.35374 1.1375 -22.5189
6.46129 1.16594 -23.0818
6.33085 1.15155 -22.7969
6.28018 1.15155 -22.7969
6.30739 1.16594 -23.0818
6.17885 1.15155 -22.7969
6.12818 1.15155 -22.7969
6.0034 1.1375 -22.5189
6.02685 1.15155 -22.7969
6.05089 1.16594 -23.0818
5.99959 1.16594 -23.0818
5.58495 1.1238 -22.2476
5.60301 1.1375 -22.5189
5.55297 1.1375 -22.5189
5.50292 1.1375 -22.5189
5.45287 1.1375 -22.5189
5.22532 1.11042 -21.9827
5.30272 1.1375 -22.5189
5.11938 1.1193 -22.1586
5.15258 1.1375 -22.5189
5.10253 1.1375 -22.5189
5.05248 1.1375 -22.5189
5.00243 1.1375 -22.5189
4.8239 1.1193 -22.1586
4.77465 1.1193 -22.1586
4.63275 1.09736 -21.7241
4.63904 1.11042 -21.9827
4.59018 1.11042 -21.9827
4.54133 1.11042 -21.9827
4.49247 1.11042 -21.9827
4.39134 1.09736 -21.7241
4.34305 1.09736 -21.7241
4.24483 1.0846 -21.4715
4.19711 1.0846 -21.4715
4.19821 1.09736 -21.7241
4.19933 1.11042 -21.9827
4.15047 1.11042 -21.9827
4.00623 1.0846 -21.4715
3.95851 1.0846 -21.4715
3.91079 1.0846 -21.4715
3.95504 1.11042 -21.9827
3.81195 1.09736 -21.7241
3.71539 1.09736 -21.7241
3.62446 1.0846 -21.4715
3.61305 1.11042 -21.9827
3.52226 1.09736 -21.7241
3.47398 1.09736 -21.7241
3.38586 1.0846 -21.4715
3.33814 1.0846 -21.4715
3.29042 1.0846 -21.4715
3.26803 1.09307 -21.6392
3.27105 1.11042 -21.9827
3.18428 1.09736 -21.7241
3.136 1.09736 -21.7241
3.05182 1.0846 -21.4715
3.00409 1.0846 -21.4715
3.02676 1.11042 -21.9827
2.90865 1.0846 -21.4715
2.86093 1.0846 -21.4715
2.83519 1.09307 -21.6392
2.67005 1.0846 -21.4715
2.62233 1.0846 -21.4715
2.57461 1.0846 -21.4715
2.52689 1.0846 -21.4715
2.4035 1.07213 -21.2247
2.35633 1.07213 -21.2247
2.28291 1.05995 -20.9835
2.23628 1.05995 -20.9835
2.26692 1.09736 -21.7241
2.21864 1.09736 -21.7241
2.14512 1.0846 -21.4715
2.0974 1.0846 -21.4715
1.98059 1.04804 -20.7477
1.93448 1.04804 -20.7477
1.90982 1.05995 -20.9835
1.8846 1.07213 -21.2247
1.83743 1.07213 -21.2247
1.81108 1.0846 -21.4715
1.76336 1.0846 -21.4715
1.70244 1.07625 -21.3063
1.58337 1.05995 -20.9835
1.53674 1.05995 -20.9835
1.39683 1.05995 -20.9835
1.35019 1.05995 -20.9835
1.28891 1.04804 -20.7477
1.2428 1.04804 -20.7477
1.18339 1.03639 -20.5172
1.19071 1.0846 -21.4715
1.07037 1.05995 -20.9835
1.04755 1.0846 -21.4715
0.999825 1.0846 -21.4715
0.818589 1.03639 -20.5172
0.80272 1.07625 -21.3063
0.755366 1.07625 -21.3063
0.697285 1.05995 -20.9835
0.650649 1.05995 -20.9835
0.559496 1.06398 -21.0633
0.512683 1.06398 -21.0633
0.319072 0.728714 -14.4261
0.422267 1.07213 -21.2247
0.375095 1.07213 -21.2247
0.324196 1.05995 -20.9835
0.27756 1.05995 -20.9835
0.228329 1.04804 -20.7477
0.182217 1.04804 -20.7477
0.134593 1.03639 -20.5172
0.0889931 1.03639 -20.5172
-0.00225661 1.05995 -20.9835
-0.0488927 1.05995 -20.9835
-0.0955289 1.05995 -20.9835
-0.140568 1.04804 -20.7477
-0.18668 1.04804 -20.7477
-0.230205 1.03639 -20.5172
-0.278904 1.04804 -20.7477
-0.371128 1.04804 -20.7477
-0.617583 0.932754 -18.4655
-0.918908 0.672659 -13.3164
-1.38957 0.685848 -13.5776
-1.44285 0.682503 -13.5113
-1.57063 0.685848 -13.5776
-1.59578 0.671046 -13.2845
-1.62531 0.671046 -13.2845
-1.67491 0.67919 -13.4457
-1.7048 0.67919 -13.4457
-1.75604 0.675909 -13.3808
-1.78578 0.675909 -13.3808
-1.96668 0.656869 -13.0039
-2.00974 0.661528 -13.0961
-2.08187 0.647746 -12.8232
-2.13887 0.647746 -12.8232
-2.17572 0.641803 -12.7056
-2.18392 0.635969 -12.5901
-2.20689 0.634526 -12.5615
-2.23481 0.634526 -12.5615
-2.27823 0.638873 -12.6476
-2.38812 0.661528 -13.0961
-2.62434 0.701319 -13.8838
-2.65519 0.701319 -13.8838
-2.51581 0.656869 -13.0039
-2.72763 0.666253 -13.1896
-2.75695 0.666253 -13.1896
-2.80631 0.671046 -13.2845
-2.83583 0.671046 -13.2845
