VERSION 0.7
FIELDS x y z
SIZE 4 4 4
TYPE F F F
COUNT 1 1 1
WIDTH 1829
HEIGHT 1
VIEWPOINT 0 0 0 1 0 0 0
POINTS 1829
DATA ascii
-158.757 -20.8278 -611.307
-160.058 -20.8278 -611.307
-160.117 -20.6676 -606.605
-162.24 -20.7741 -609.732
-165.241 -20.9905 -616.083
-174.632 -21.6676 -635.957
-175.044 -21.5518 -632.556
-83.9576 -20.9914 -657.155
-85.3324 -20.6473 -646.382
-86.2367 -20.5351 -642.869
-87.6048 -20.5351 -642.869
-88.0162 -20.3143 -635.957
-90.0961 -20.4794 -641.127
-93.5857 -20.6473 -646.382
-94.1892 -20.4794 -641.127
-95.5536 -20.4794 -641.127
-98.8431 -20.3143 -635.957
-100.467 -20.369 -637.671
-102.903 -20.3143 -635.957
-103.423 -20.1518 -630.869
-104.765 -20.1518 -630.869
-111.336 -19.8866 -622.568
-112.365 -19.8344 -620.934
-113.686 -19.8344 -620.934
-117.128 -19.5269 -611.307
-118.428 -19.5269 -611.307
-118.808 -19.3767 -606.605
-120.099 -19.3767 -606.605
-123.287 -19.6794 -616.083
-124.598 -19.6794 -616.083
-124.933 -19.5269 -611.307
-126.234 -19.5269 -611.307
-126.554 -19.3767 -606.605
-126.869 -19.2288 -601.974
-128.15 -19.2288 -601.974
-129.431 -19.2288 -601.974
-131.717 -19.3767 -606.605
-133.008 -19.3767 -606.605
-133.274 -19.2288 -601.974
-134.555 -19.2288 -601.974
-135.836 -19.2288 -601.974
-137.117 -19.2288 -601.974
-138.398 -19.2288 -601.974
-140.754 -19.3767 -606.605
-154.854 -19.5269 -611.307
-156.155 -19.5269 -611.307
-156.245 -19.3767 -606.605
-167.864 -19.6794 -616.083
-174.632 -20.3143 -635.957
-175.044 -20.2056 -632.556
-176.39 -20.2056 -632.556
-83.9576 -19.5929 -657.155
-85.3324 -19.2717 -646.382
-86.2367 -19.167 -642.869
-86.6628 -18.9609 -635.957
-90.0961 -19.115 -641.127
-92.2102 -19.2717 -646.382
-93.5857 -19.2717 -646.382
-94.1892 -19.115 -641.127
-95.5536 -19.115 -641.127
-96.1364 -18.9609 -635.957
-97.4898 -18.9609 -635.957
-98.8431 -18.9609 -635.957
-100.467 -19.012 -637.671
-101.824 -19.012 -637.671
-102.903 -18.9609 -635.957
-103.423 -18.8092 -630.869
-104.765 -18.8092 -630.869
-105.266 -18.6599 -625.862
-106.597 -18.6599 -625.862
-107.929 -18.6599 -625.862
-108.401 -18.513 -620.934
-109.722 -18.513 -620.934
-110.753 -18.4645 -619.309
-112.365 -18.513 -620.934
-113.686 -18.513 -620.934
-115.008 -18.513 -620.934
-116.329 -18.513 -620.934
-116.732 -18.3684 -616.083
-118.043 -18.3684 -616.083
-118.808 -18.0858 -606.605
-120.099 -18.0858 -606.605
-124.598 -18.3684 -616.083
-124.933 -18.226 -611.307
-126.234 -18.226 -611.307
-126.554 -18.0858 -606.605
-126.869 -17.9477 -601.974
-128.15 -17.9477 -601.974
-128.45 -17.8118 -597.414
-131.717 -18.0858 -606.605
-133.008 -18.0858 -606.605
-133.614 -17.9935 -603.51
-148.647 -17.9477 -601.974
-149.928 -17.9477 -601.974
-151.209 -17.9477 -601.974
-153.663 -18.0858 -606.605
-154.954 -18.0858 -606.605
-156.245 -18.0858 -606.605
-158.757 -18.226 -611.307
-160.058 -18.226 -611.307
-160.117 -18.0858 -606.605
-162.66 -18.226 -611.307
-164.385 -18.2732 -612.891
-167.864 -18.3684 -616.083
-170.507 -18.513 -620.934
-82.5813 -17.8962 -646.382
-84.8845 -18.0939 -653.525
-86.2753 -18.0939 -653.525
-86.708 -17.8962 -646.382
-88.7318 -17.7507 -641.127
-90.8346 -17.8962 -646.382
-92.2102 -17.8962 -646.382
-93.5857 -17.8962 -646.382
-94.1892 -17.7507 -641.127
-95.5536 -17.7507 -641.127
-96.1364 -17.6075 -635.957
-97.4898 -17.6075 -635.957
-98.8431 -17.6075 -635.957
-100.197 -17.6075 -635.957
-101.55 -17.6075 -635.957
-102.903 -17.6075 -635.957
-104.257 -17.6075 -635.957
-104.486 -17.4202 -629.191
-105.266 -17.328 -625.862
-118.808 -16.7949 -606.605
-124.598 -17.0573 -616.083
-124.933 -16.9251 -611.307
-126.234 -16.9251 -611.307
-126.554 -16.7949 -606.605
-126.869 -16.6667 -601.974
-128.15 -16.6667 -601.974
-128.45 -16.5404 -597.414
-131.717 -16.7949 -606.605
-133.008 -16.7949 -606.605
-133.614 -16.7092 -603.51
-134.898 -16.7092 -603.51
-134.807 -16.5404 -597.414
-136.078 -16.5404 -597.414
-137.35 -16.5404 -597.414
-139.679 -16.6667 -601.974
-142.045 -16.7949 -606.605
-143.336 -16.7949 -606.605
-144.627 -16.7949 -606.605
-147.049 -16.9251 -611.307
-144.978 -16.5404 -597.414
-150.063 -16.5404 -597.414
-153.663 -16.7949 -606.605
-154.954 -16.7949 -606.605
-158.757 -16.9251 -611.307
-160.058 -16.9251 -611.307
-160.117 -16.7949 -606.605
-162.66 -16.9251 -611.307
-164.385 -16.9689 -612.891
-165.689 -16.9689 -612.891
-166.562 -16.9251 -611.307
-170.507 -17.1916 -620.934
-177.416 -17.7507 -641.127
-84.8845 -16.7032 -653.525
-93.5857 -16.5206 -646.382
-94.1892 -16.3863 -641.127
-95.5536 -16.3863 -641.127
-100.197 -16.2542 -635.957
-101.55 -16.2542 -635.957
-102.903 -16.2542 -635.957
-103.147 -16.0812 -629.191
-104.486 -16.0812 -629.191
-105.266 -15.9962 -625.862
-106.597 -15.9962 -625.862
-107.929 -15.9962 -625.862
-108.401 -15.8702 -620.934
-109.722 -15.8702 -620.934
-111.044 -15.8702 -620.934
-112.365 -15.8702 -620.934
-113.686 -15.8702 -620.934
-114.109 -15.7462 -616.083
-116.732 -15.7462 -616.083
-118.043 -15.7462 -616.083
-118.808 -15.504 -606.605
-121.03 -15.6241 -611.307
-123.287 -15.7462 -616.083
-124.598 -15.7462 -616.083
-124.933 -15.6241 -611.307
-126.234 -15.6241 -611.307
-126.554 -15.504 -606.605
-126.869 -15.3856 -601.974
-128.15 -15.3856 -601.974
-128.45 -15.2691 -597.414
-130.712 -15.3856 -601.974
-133.008 -15.504 -606.605
-133.274 -15.3856 -601.974
-134.555 -15.3856 -601.974
-134.807 -15.2691 -597.414
-136.078 -15.2691 -597.414
-137.35 -15.2691 -597.414
-139.679 -15.3856 -601.974
-142.045 -15.504 -606.605
-143.889 -15.4249 -603.51
-150.063 -15.2691 -597.414
-153.663 -15.504 -606.605
-156.245 -15.504 -606.605
-157.536 -15.504 -606.605
-158.826 -15.504 -606.605
-167.864 -15.7462 -616.083
-170.507 -15.8702 -620.934
-175.92 -16.1241 -630.869
-178.692 -16.2542 -635.957
-84.6507 -15.2702 -651.724
-86.0376 -15.2702 -651.724
-86.708 -15.1451 -646.382
-88.7318 -15.0219 -641.127
-92.2102 -15.1451 -646.382
-93.5857 -15.1451 -646.382
-94.1892 -15.0219 -641.127
-95.5536 -15.0219 -641.127
-96.1364 -14.9008 -635.957
-97.4898 -14.9008 -635.957
-97.2742 -14.6643 -625.862
-100.197 -14.9008 -635.957
-101.55 -14.9008 -635.957
-102.903 -14.9008 -635.957
-103.423 -14.7816 -630.869
-104.765 -14.7816 -630.869
-105.266 -14.6643 -625.862
-106.597 -14.6643 -625.862
-107.929 -14.6643 -625.862
-110.135 -14.7816 -630.869
-111.925 -14.6643 -625.862
-113.257 -14.6643 -625.862
-114.109 -14.4351 -616.083
-116.732 -14.4351 -616.083
-118.428 -14.3232 -611.307
-119.729 -14.3232 -611.307
-121.03 -14.3232 -611.307
-122.331 -14.3232 -611.307
-123.632 -14.3232 -611.307
-124.933 -14.3232 -611.307
-126.234 -14.3232 -611.307
-126.554 -14.2131 -606.605
-126.869 -14.1046 -601.974
-128.15 -14.1046 -601.974
-128.45 -13.9977 -597.414
-129.722 -13.9977 -597.414
-130.993 -13.9977 -597.414
-133.274 -14.1046 -601.974
-134.555 -14.1046 -601.974
-134.807 -13.9977 -597.414
-135.055 -13.8925 -592.922
-136.317 -13.8925 -592.922
-137.235 -13.8577 -591.44
-140.318 -14.0403 -599.23
-143.889 -14.1405 -603.51
-145.173 -14.1405 -603.51
-144.978 -13.9977 -597.414
-146.992 -14.0688 -600.447
-150.063 -13.9977 -597.414
-152.49 -14.1046 -601.974
-156.245 -14.2131 -606.605
-156.333 -14.1046 -601.974
-157.614 -14.1046 -601.974
-160.117 -14.2131 -606.605
-161.408 -14.2131 -606.605
-163.96 -14.3232 -611.307
-165.261 -14.3232 -611.307
-165.281 -14.2131 -606.605
-169.175 -14.4351 -616.083
-173.192 -14.6643 -625.862
-178.692 -14.9008 -635.957
-83.9568 -13.7695 -646.382
-85.3324 -13.7695 -646.382
-86.708 -13.7695 -646.382
-88.8115 -13.8833 -651.724
-90.1984 -13.8833 -651.724
-92.2102 -13.7695 -646.382
-93.5857 -13.7695 -646.382
-94.9613 -13.7695 -646.382
-95.2954 -13.6206 -639.394
-96.1364 -13.5474 -635.957
-96.7098 -13.439 -630.869
-98.0524 -13.439 -630.869
-100.738 -13.6206 -639.394
-102.099 -13.6206 -639.394
-102.903 -13.5474 -635.957
-103.423 -13.439 -630.869
-104.765 -13.439 -630.869
-105.266 -13.3324 -625.862
-106.597 -13.3324 -625.862
-107.929 -13.3324 -625.862
-110.135 -13.439 -630.869
-111.925 -13.3324 -625.862
-113.257 -13.3324 -625.862
-114.109 -13.1241 -616.083
-115.42 -13.1241 -616.083
-116.732 -13.1241 -616.083
-118.428 -13.0223 -611.307
-119.729 -13.0223 -611.307
-121.03 -13.0223 -611.307
-122.331 -13.0223 -611.307
-123.632 -13.0223 -611.307
-124.933 -13.0223 -611.307
-126.234 -13.0223 -611.307
-126.554 -12.9222 -606.605
-126.869 -12.8235 -601.974
-128.15 -12.8235 -601.974
-128.45 -12.7264 -597.414
-129.722 -12.7264 -597.414
-130.993 -12.7264 -597.414
-133.274 -12.8235 -601.974
-134.555 -12.8235 -601.974
-135.055 -12.6307 -592.922
-136.317 -12.6307 -592.922
-148.647 -12.8235 -601.974
-149.928 -12.8235 -601.974
-150.063 -12.7264 -597.414
-151.335 -12.7264 -597.414
-153.877 -12.7264 -597.414
-156.333 -12.8235 -601.974
-157.614 -12.8235 -601.974
-157.691 -12.7264 -597.414
-173.192 -13.3324 -625.862
-174.524 -13.3324 -625.862
-178.692 -13.5474 -635.957
-92.2102 -12.3939 -646.382
-93.5857 -12.3939 -646.382
-93.9347 -12.26 -639.394
-95.2954 -12.26 -639.394
-96.1364 -12.194 -635.957
-96.7098 -12.0965 -630.869
-98.0524 -12.0965 -630.869
-99.3949 -12.0965 -630.869
-102.099 -12.26 -639.394
-102.903 -12.194 -635.957
-103.423 -12.0965 -630.869
-104.765 -12.0965 -630.869
-105.266 -12.0005 -625.862
-106.597 -12.0005 -625.862
-110.135 -12.0965 -630.869
-111.925 -12.0005 -625.862
-113.257 -12.0005 -625.862
-118.428 -11.7214 -611.307
-119.729 -11.7214 -611.307
-120.099 -11.6312 -606.605
-121.39 -11.6312 -606.605
-122.681 -11.6312 -606.605
-123.972 -11.6312 -606.605
-125.263 -11.6312 -606.605
-126.554 -11.6312 -606.605
-126.869 -11.5425 -601.974
-128.15 -11.5425 -601.974
-128.45 -11.455 -597.414
-129.722 -11.455 -597.414
-129.683 -11.3405 -591.44
-130.29 -11.284 -588.497
-132.532 -11.3689 -592.922
-134.807 -11.455 -597.414
-135.055 -11.3689 -592.922
-136.317 -11.3689 -592.922
-136.552 -11.284 -588.497
-136.784 -11.2005 -584.138
-138.027 -11.2005 -584.138
-140.309 -11.284 -588.497
-143.888 -11.3689 -592.922
-146.249 -11.455 -597.414
-147.149 -11.4262 -595.909
-148.417 -11.4262 -595.909
-150.063 -11.455 -597.414
-151.335 -11.455 -597.414
-152.72 -11.3689 -592.922
-156.42 -11.455 -597.414
-158.895 -11.5425 -601.974
-161.408 -11.6312 -606.605
-162.699 -11.6312 -606.605
-163.99 -11.6312 -606.605
-165.281 -11.6312 -606.605
-174.524 -12.0005 -625.862
-86.708 -11.0184 -646.382
-92.2102 -11.0184 -646.382
-93.5857 -11.0184 -646.382
-94.1892 -10.9288 -641.127
-95.5536 -10.9288 -641.127
-96.1364 -10.8407 -635.957
-96.7098 -10.754 -630.869
-98.0524 -10.754 -630.869
-99.3949 -10.754 -630.869
-101.55 -10.8407 -635.957
-102.903 -10.8407 -635.957
-104.257 -10.8407 -635.957
-105.266 -10.6686 -625.862
-106.597 -10.6686 -625.862
-109.261 -10.6686 -625.862
-112.52 -10.7253 -629.191
-113.257 -10.6686 -625.862
-114.109 -10.5019 -616.083
-115.42 -10.5019 -616.083
-116.732 -10.5019 -616.083
-118.043 -10.5019 -616.083
-120.464 -10.2614 -601.974
-121.745 -10.2614 -601.974
-123.026 -10.2614 -601.974
-125.263 -10.3403 -606.605
-126.554 -10.3403 -606.605
-126.869 -10.2614 -601.974
-128.15 -10.2614 -601.974
-128.45 -10.1837 -597.414
-128.424 -10.0818 -591.44
-129.683 -10.0818 -591.44
-130.29 -10.0317 -588.497
-132.532 -10.1071 -592.922
-134.807 -10.1837 -597.414
-135.055 -10.1071 -592.922
-136.317 -10.1071 -592.922
-136.552 -10.0317 -588.497
-136.784 -9.95736 -584.138
-138.027 -9.95736 -584.138
-140.309 -10.0317 -588.497
-143.888 -10.1071 -592.922
-146.249 -10.1837 -597.414
-148.417 -10.158 -595.909
-150.063 -10.1837 -597.414
-149.215 -9.95736 -584.138
-151.581 -10.0317 -588.497
-152.833 -10.0317 -588.497
-160.176 -10.2614 -601.974
-175.92 -10.754 -630.869
-86.7546 -9.80355 -657.155
-88.1531 -9.80355 -657.155
-88.8115 -9.72253 -651.724
-90.1984 -9.72253 -651.724
-90.8346 -9.64284 -646.382
-91.4605 -9.56444 -641.127
-92.8249 -9.56444 -641.127
-94.1892 -9.56444 -641.127
-95.5536 -9.56444 -641.127
-96.1364 -9.48731 -635.957
-96.7098 -9.41141 -630.869
-98.0524 -9.41141 -630.869
-100.197 -9.48731 -635.957
-101.55 -9.48731 -635.957
-102.903 -9.48731 -635.957
-104.257 -9.48731 -635.957
-105.266 -9.33671 -625.862
-106.597 -9.33671 -625.862
-107.929 -9.33671 -625.862
-109.261 -9.33671 -625.862
-111.181 -9.38638 -629.191
-112.52 -9.38638 -629.191
-113.257 -9.33671 -625.862
-114.109 -9.19083 -616.083
-115.42 -9.19083 -616.083
-116.732 -9.19083 -616.083
-118.043 -9.19083 -616.083
-120.464 -8.98035 -601.974
-121.745 -8.98035 -601.974
-123.026 -8.98035 -601.974
-126.554 -9.04943 -606.605
-126.869 -8.98035 -601.974
-128.15 -8.98035 -601.974
-128.45 -8.91232 -597.414
-129.038 -8.7793 -588.497
-130.29 -8.7793 -588.497
-131.543 -8.7793 -588.497
-132.795 -8.7793 -588.497
-133.054 -8.71427 -584.138
-134.298 -8.71427 -584.138
-134.544 -8.65019 -579.843
-146.249 -8.91232 -597.414
-143.182 -8.65019 -579.843
-145.485 -8.71427 -584.138
-146.729 -8.71427 -584.138
-147.972 -8.71427 -584.138
-148.118 -8.65019 -579.843
-149.352 -8.65019 -579.843
-157.842 -8.7793 -588.497
-160.291 -8.84531 -592.922
-86.7546 -8.40507 -657.155
-88.1531 -8.40507 -657.155
-88.8115 -8.3356 -651.724
-90.1984 -8.3356 -651.724
-90.8346 -8.26728 -646.382
-91.4605 -8.20007 -641.127
-92.8249 -8.20007 -641.127
-94.1892 -8.20007 -641.127
-95.5536 -8.20007 -641.127
-96.1364 -8.13394 -635.957
-96.7098 -8.06886 -630.869
-98.0524 -8.06886 -630.869
-100.197 -8.13394 -635.957
-101.55 -8.13394 -635.957
-102.903 -8.13394 -635.957
-104.257 -8.13394 -635.957
-104.765 -8.06886 -630.869
-106.108 -8.06886 -630.869
-106.597 -8.00483 -625.862
-107.554 -7.87975 -616.083
-112.365 -7.9418 -620.934
-114.109 -7.87975 -616.083
-115.42 -7.87975 -616.083
-116.732 -7.87975 -616.083
-118.043 -7.87975 -616.083
-121.39 -7.75852 -606.605
-120.822 -7.64097 -597.414
-122.094 -7.64097 -597.414
-124.636 -7.64097 -597.414
-125.281 -7.52693 -588.497
-126.533 -7.52693 -588.497
-127.14 -7.41624 -579.843
-128.374 -7.41624 -579.843
-132.795 -7.52693 -588.497
-138.246 -7.41624 -579.843
-142.483 -7.38006 -577.014
-144.416 -7.41624 -579.843
-144.587 -7.3621 -575.611
-145.811 -7.3621 -575.611
-147.036 -7.3621 -575.611
-148.261 -7.3621 -575.611
-149.486 -7.3621 -575.611
-149.619 -7.30875 -571.439
-150.835 -7.30875 -571.439
-160.291 -7.58352 -592.922
-165.319 -7.64097 -597.414
-167.862 -7.6993 -601.974
-86.0376 -6.94868 -651.724
-88.1531 -7.00659 -657.155
-88.8115 -6.94868 -651.724
-90.1984 -6.94868 -651.724
-90.8346 -6.89172 -646.382
-91.4605 -6.83569 -641.127
-92.8249 -6.83569 -641.127
-94.1892 -6.83569 -641.127
-95.5536 -6.83569 -641.127
-96.1364 -6.78057 -635.957
-97.4898 -6.78057 -635.957
-100.197 -6.78057 -635.957
-101.55 -6.78057 -635.957
-102.903 -6.78057 -635.957
-104.257 -6.78057 -635.957
-104.765 -6.72632 -630.869
-106.108 -6.72632 -630.869
-106.597 -6.67294 -625.862
-107.554 -6.56867 -616.083
-110.011 -6.63782 -622.568
-111.336 -6.63782 -622.568
-111.487 -6.56867 -616.083
-112.354 -6.46762 -606.605
-114.526 -6.51775 -611.307
-118.043 -6.56867 -616.083
-118.652 -6.32173 -592.922
-120.822 -6.36962 -597.414
-121.176 -6.32173 -592.922
-122.437 -6.32173 -592.922
-123.699 -6.32173 -592.922
-124.961 -6.32173 -592.922
-125.281 -6.27455 -588.497
-125.596 -6.22808 -584.138
-126.839 -6.22808 -584.138
-127.14 -6.18228 -579.843
-127.73 -6.09268 -571.439
-135.026 -6.09268 -571.439
-135.262 -6.04885 -567.328
-136.47 -6.04885 -567.328
-136.914 -5.96305 -559.281
-139.091 -6.00564 -563.276
-142.323 -6.09268 -571.439
-144.755 -6.09268 -571.439
-145.971 -6.09268 -571.439
-146.128 -6.04885 -567.328
-147.335 -6.04885 -567.328
-149.619 -6.09268 -571.439
-150.835 -6.09268 -571.439
-152.051 -6.09268 -571.439
-153.267 -6.09268 -571.439
-155.611 -6.13716 -575.611
-156.836 -6.13716 -575.611
-156.916 -6.09268 -571.439
-159.286 -6.13716 -575.611
-87.4245 -5.56176 -651.724
-88.8115 -5.56176 -651.724
-90.1984 -5.56176 -651.724
-90.8346 -5.51617 -646.382
-91.4605 -5.47132 -641.127
-92.8249 -5.47132 -641.127
-102.903 -5.4272 -635.957
-104.257 -5.4272 -635.957
-110.011 -5.31294 -622.568
-111.487 -5.2576 -616.083
-114.466 -5.09828 -597.414
-122.205 -4.94833 -579.843
-123.438 -4.94833 -579.843
-124.987 -4.91221 -575.611
-126.508 -4.82995 -565.971
-128.946 -4.87661 -571.439
-134.062 -4.67342 -547.63
-145.971 -4.87661 -571.439
-146.128 -4.84153 -567.328
-147.335 -4.84153 -567.328
-149.619 -4.87661 -571.439
-150.835 -4.87661 -571.439
-152.051 -4.87661 -571.439
-153.267 -4.87661 -571.439
-84.6386 -4.10695 -641.127
-86.003 -4.10695 -641.127
-88.8115 -4.17483 -651.724
-90.1984 -4.17483 -651.724
-90.8346 -4.14061 -646.382
-96.1364 -4.07383 -635.957
-98.2824 -4.10695 -641.127
-100.197 -4.07383 -635.957
-101.55 -4.07383 -635.957
-102.903 -4.07383 -635.957
-104.257 -4.07383 -635.957
-104.765 -4.04124 -630.869
-106.108 -4.04124 -630.869
-106.597 -4.00916 -625.862
-107.554 -3.94652 -616.083
-108.865 -3.94652 -616.083
-110.176 -3.94652 -616.083
-111.487 -3.94652 -616.083
-112.354 -3.8858 -606.605
-112.777 -3.85614 -601.974
-114.058 -3.85614 -601.974
-114.466 -3.82693 -597.414
-115.737 -3.82693 -597.414
-117.767 -3.76981 -588.497
-115.569 -3.66054 -571.439
-119.38 -3.74189 -584.138
-120.624 -3.74189 -584.138
-122.205 -3.71437 -579.843
-123.438 -3.71437 -579.843
-124.987 -3.68726 -575.611
-131.378 -3.66054 -571.439
-146.283 -3.60825 -563.276
-147.482 -3.60825 -563.276
-150.957 -3.63421 -567.328
-152.165 -3.63421 -567.328
-153.372 -3.63421 -567.328
-153.475 -3.60825 -563.276
-156.916 -3.66054 -571.439
-157.071 -3.60825 -563.276
-158.27 -3.60825 -563.276
-161.78 -3.66054 -571.439
-84.6386 -2.74257 -641.127
-86.003 -2.74257 -641.127
-88.0835 -2.76505 -646.382
-89.8526 -2.73516 -639.394
-91.709 -2.75003 -642.869
-93.4297 -2.72046 -635.957
-96.1364 -2.72046 -635.957
-98.2824 -2.74257 -641.127
-100.197 -2.72046 -635.957
-101.55 -2.72046 -635.957
-104.257 -2.72046 -635.957
-104.765 -2.69869 -630.869
-106.108 -2.69869 -630.869
-106.597 -2.67728 -625.862
-107.554 -2.63544 -616.083
-108.865 -2.63544 -616.083
-111.635 -2.60827 -609.732
-112.354 -2.5949 -606.605
-113.065 -2.58166 -603.51
-114.349 -2.58166 -603.51
-115.737 -2.55558 -597.414
-116.894 -2.49879 -584.138
-119.019 -2.51744 -588.497
-119.737 -2.48042 -579.843
-120.971 -2.48042 -579.843
-122.205 -2.48042 -579.843
-122.537 -2.46231 -575.611
-123.762 -2.46231 -575.611
-124.082 -2.44447 -571.439
-125.905 -2.40955 -563.276
-126.202 -2.39246 -559.281
-127.393 -2.39246 -559.281
-130.433 -2.42688 -567.328
-131.64 -2.42688 -567.328
-131.899 -2.40955 -563.276
-132.153 -2.39246 -559.281
-133.344 -2.39246 -559.281
-133.586 -2.37561 -555.343
-133.826 -2.359 -551.459
-134.999 -2.359 -551.459
-139.091 -2.40955 -563.276
-139.295 -2.39246 -559.281
-140.485 -2.39246 -559.281
-140.677 -2.37561 -555.343
-146.283 -2.40955 -563.276
-147.482 -2.40955 -563.276
-147.626 -2.39246 -559.281
-148.816 -2.39246 -559.281
-152.165 -2.42688 -567.328
-153.372 -2.42688 -567.328
-153.475 -2.40955 -563.276
-153.577 -2.39246 -559.281
-154.767 -2.39246 -559.281
-92.6822 -1.35615 -630.869
-96.1364 -1.36709 -635.957
-99.088 -1.3895 -646.382
-99.6467 -1.3782 -641.127
-101.011 -1.3782 -641.127
-102.602 -1.34539 -625.862
-105.61 -1.36709 -635.957
-106.597 -1.34539 -625.862
-107.554 -1.32437 -616.083
-108.865 -1.32437 -616.083
-110.338 -1.31071 -609.732
-111.635 -1.31071 -609.732
-112.354 -1.30399 -606.605
-113.065 -1.29734 -603.51
-116.894 -1.25569 -584.138
-116.413 -1.23736 -575.611
-119.737 -1.24646 -579.843
-125.604 -1.21956 -567.328
-125.905 -1.21085 -563.276
-126.202 -1.20226 -559.281
-127.393 -1.20226 -559.281
-128.28 -1.19943 -557.962
-129.467 -1.19943 -557.962
-130.654 -1.19943 -557.962
-131.531 -1.1966 -556.649
-132.716 -1.1966 -556.649
-133.586 -1.19379 -555.343
-133.826 -1.18545 -551.459
-134.999 -1.18545 -551.459
-135.227 -1.17721 -547.63
-140.677 -1.19379 -555.343
-140.867 -1.18545 -551.459
-142.041 -1.18545 -551.459
-144.223 -1.19379 -555.343
-147.482 -1.21085 -563.276
-147.768 -1.19379 -555.343
-150.719 -1.20797 -561.938
-151.915 -1.20797 -561.938
-153.475 -1.21085 -563.276
-153.577 -1.20226 -559.281
-154.767 -1.20226 -559.281
-154.859 -1.19379 -555.343
-156.408 -1.1966 -556.649
-158.404 -1.19379 -555.343
-158.841 -1.18822 -552.747
-86.6628 -0.0137173 -635.957
-89.3695 -0.0137173 -635.957
-90.7229 -0.0137173 -635.957
-92.6822 -0.0136075 -630.869
-94.783 -0.0137173 -635.957
-96.1364 -0.0137173 -635.957
-99.088 -0.0139422 -646.382
-99.6467 -0.0138288 -641.127
-101.011 -0.0138288 -641.127
-101.55 -0.0137173 -635.957
-102.08 -0.0136075 -630.869
-103.423 -0.0136075 -630.869
-104.765 -0.0136075 -630.869
-106.108 -0.0136075 -630.869
-106.597 -0.0134995 -625.862
-107.554 -0.0132886 -616.083
-108.021 -0.0131856 -611.307
-109.322 -0.0131856 -611.307
-110.623 -0.0131856 -611.307
-111.924 -0.0131856 -611.307
-112.354 -0.0130842 -606.605
-112.777 -0.0129843 -601.974
-114.058 -0.0129843 -601.974
-114.466 -0.0128859 -597.414
-116.894 -0.0125996 -584.138
-116.413 -0.0124156 -575.611
-117.352 -0.0123855 -574.214
-118.001 -0.0123257 -571.439
-118.36 -0.012237 -567.328
-119.567 -0.012237 -567.328
-120.485 -0.0122077 -565.971
-121.69 -0.0122077 -565.971
-123.189 -0.012237 -567.328
-124.396 -0.012237 -567.328
-125.604 -0.012237 -567.328
-125.905 -0.0121496 -563.276
-126.202 -0.0120634 -559.281
-127.393 -0.0120634 -559.281
-127.677 -0.0119785 -555.343
-129.467 -0.012035 -557.962
-130.654 -0.012035 -557.962
-131.531 -0.0120067 -556.649
-132.716 -0.0120067 -556.649
-133.586 -0.0119785 -555.343
-133.826 -0.0118947 -551.459
-134.999 -0.0118947 -551.459
-135.227 -0.0118121 -547.63
-138.314 -0.0119785 -555.343
-139.495 -0.0119785 -555.343
-140.677 -0.0119785 -555.343
-140.867 -0.0118947 -551.459
-142.041 -0.0118947 -551.459
-142.881 -0.011867 -550.177
-148.95 -0.0119785 -555.343
-151.915 -0.0121207 -561.938
-153.475 -0.0121496 -563.276
-153.577 -0.0120634 -559.281
-154.767 -0.0120634 -559.281
-154.859 -0.0119785 -555.343
-156.408 -0.0120067 -556.649
-157.593 -0.0120067 -556.649
-158.404 -0.0119785 -555.343
-158.841 -0.0119225 -552.747
-160.017 -0.0119225 -552.747
-164.264 -0.0121496 -563.276
-165.462 -0.0121496 -563.276
-86.6628 1.33965 -635.957
-89.3695 1.33965 -635.957
-90.7229 1.33965 -635.957
-91.9466 1.31839 -625.862
-94.0248 1.32894 -630.869
-96.1364 1.33965 -635.957
-99.088 1.36161 -646.382
-99.6467 1.35054 -641.127
-101.011 1.35054 -641.127
-101.55 1.33965 -635.957
-102.08 1.32894 -630.869
-103.423 1.32894 -630.869
-105.266 1.31839 -625.862
-106.597 1.31839 -625.862
-114.466 1.25846 -597.414
-116.035 1.22145 -579.843
-116.13 1.20959 -574.214
-117.352 1.20959 -574.214
-118.001 1.20375 -571.439
-118.36 1.19509 -567.328
-119.567 1.19509 -567.328
-119.912 1.18655 -563.276
-121.69 1.19223 -565.971
-123.189 1.19509 -567.328
-124.396 1.19509 -567.328
-128.859 1.16984 -555.343
-130.041 1.16984 -555.343
-130.305 1.16166 -551.459
-131.479 1.16166 -551.459
-132.652 1.16166 -551.459
-135.227 1.15359 -547.63
-136.393 1.15359 -547.63
-138.52 1.16166 -551.459
-140.677 1.16984 -555.343
-140.867 1.16166 -551.459
-142.041 1.16166 -551.459
-147.768 1.16984 -555.343
-148.95 1.16984 -555.343
-150.132 1.16984 -555.343
-152.387 1.17813 -559.281
-153.577 1.17813 -559.281
-154.767 1.17813 -559.281
-154.859 1.16984 -555.343
-156.041 1.16984 -555.343
-157.223 1.16984 -555.343
-157.297 1.16166 -551.459
-159.701 1.15359 -547.63
-165.462 1.18655 -563.276
-166.669 1.17813 -559.281
-169.058 1.18655 -563.276
-104.932 2.60887 -616.083
-108.021 2.58864 -611.307
-109.322 2.58864 -611.307
-109.38 2.52981 -597.414
-110.652 2.52981 -597.414
-113.567 2.4554 -579.843
-115.188 2.43748 -575.611
-116.413 2.43748 -575.611
-117.638 2.43748 -575.611
-118.001 2.41982 -571.439
-118.36 2.40241 -567.328
-119.567 2.40241 -567.328
-119.912 2.38525 -563.276
-122.632 2.36833 -559.281
-123.822 2.36833 -559.281
-127.393 2.36833 -559.281
-127.677 2.35165 -555.343
-128.859 2.35165 -555.343
-132.652 2.33521 -551.459
-135.227 2.31899 -547.63
-136.393 2.31899 -547.63
-138.52 2.33521 -551.459
-140.677 2.35165 -555.343
-140.867 2.33521 -551.459
-142.041 2.33521 -551.459
-142.22 2.31899 -547.63
-145.405 2.35165 -555.343
-147.768 2.35165 -555.343
-148.95 2.35165 -555.343
-152.387 2.36833 -559.281
-153.577 2.36833 -559.281
-154.767 2.36833 -559.281
-154.859 2.35165 -555.343
-154.589 2.32978 -550.177
-155.76 2.32978 -550.177
-157.297 2.33521 -551.459
-159.701 2.31899 -547.63
-165.462 2.38525 -563.276
-166.669 2.36833 -559.281
-169.058 2.38525 -563.276
-171.482 2.40241 -567.328
-88.0162 4.04639 -635.957
-90.7229 4.04639 -635.957
-91.3397 4.01402 -630.869
-92.6822 4.01402 -630.869
-93.2785 3.98216 -625.862
-96.1364 4.04639 -635.957
-99.088 4.11273 -646.382
-99.6467 4.07929 -641.127
-101.011 4.07929 -641.127
-101.55 4.04639 -635.957
-102.08 4.01402 -630.869
-103.423 4.01402 -630.869
-103.934 3.98216 -625.862
-104.932 3.91994 -616.083
-108.021 3.88956 -611.307
-109.322 3.88956 -611.307
-109.38 3.80116 -597.414
-110.652 3.80116 -597.414
-111.922 3.71669 -584.138
-113.165 3.71669 -584.138
-113.567 3.68936 -579.843
-117.638 3.66243 -575.611
-118.001 3.63589 -571.439
-121.11 3.58395 -563.276
-122.309 3.58395 -563.276
-122.632 3.55853 -559.281
-123.822 3.55853 -559.281
-125.012 3.55853 -559.281
-126.202 3.55853 -559.281
-130.305 3.50876 -551.459
-131.479 3.50876 -551.459
-132.652 3.50876 -551.459
-134.295 3.46036 -543.853
-136.393 3.48439 -547.63
-138.52 3.50876 -551.459
-140.677 3.53347 -555.343
-140.867 3.50876 -551.459
-142.041 3.50876 -551.459
-142.22 3.48439 -547.63
-144.388 3.50876 -551.459
-146.735 3.50876 -551.459
-148.95 3.53347 -555.343
-151.314 3.53347 -555.343
-152.495 3.53347 -555.343
-153.677 3.53347 -555.343
-155.76 3.5006 -550.177
-157.297 3.50876 -551.459
-159.701 3.48439 -547.63
-160.866 3.48439 -547.63
-165.495 3.53347 -555.343
-167.859 3.55853 -559.281
-170.257 3.58395 -563.276
-88.0162 5.39976 -635.957
-89.3695 5.39976 -635.957
-90.7229 5.39976 -635.957
-91.3397 5.35656 -630.869
-92.6822 5.35656 -630.869
-93.8746 5.34801 -629.861
-96.1364 5.39976 -635.957
-97.4898 5.39976 -635.957
-99.6467 5.44366 -641.127
-101.011 5.44366 -641.127
-101.55 5.39976 -635.957
-103.934 5.31405 -625.862
-104.118 5.19047 -611.307
-105.419 5.19047 -611.307
-105.899 5.15054 -606.605
-107.19 5.15054 -606.605
-106.837 5.0725 -597.414
-108.109 5.0725 -597.414
-109.38 5.0725 -597.414
-111.505 4.99679 -588.497
-111.922 4.95978 -584.138
-113.165 4.95978 -584.138
-113.567 4.92331 -579.843
-115.188 4.88738 -575.611
-116.413 4.88738 -575.611
-118.713 4.78265 -563.276
-119.912 4.78265 -563.276
-121.11 4.78265 -563.276
-122.309 4.78265 -563.276
-123.508 4.78265 -563.276
-123.53 4.73753 -557.962
-124.132 4.71529 -555.343
-124.728 4.69325 -552.747
-125.904 4.69325 -552.747
-126.784 4.68231 -551.459
-128.859 4.71529 -555.343
-130.041 4.71529 -555.343
-130.305 4.68231 -551.459
-131.479 4.68231 -551.459
-131.731 4.6498 -547.63
-134.295 4.61773 -543.853
-136.393 4.6498 -547.63
-136.609 4.61773 -543.853
-139.693 4.68231 -551.459
-140.867 4.68231 -551.459
-142.041 4.68231 -551.459
-142.22 4.6498 -547.63
-143.385 4.6498 -547.63
-143.72 4.5861 -540.128
-148.95 4.71529 -555.343
-149.212 4.6498 -547.63
-152.495 4.71529 -555.343
-153.677 4.71529 -555.343
-154.859 4.71529 -555.343
-154.95 4.68231 -551.459
-156.123 4.68231 -551.459
-156.204 4.6498 -547.63
-156.285 4.61773 -543.853
-157.442 4.61773 -543.853
-159.701 4.6498 -547.63
-160.866 4.6498 -547.63
-162.785 4.67142 -550.177
-165.495 4.71529 -555.343
-167.859 4.74873 -559.281
-170.257 4.78265 -563.276
-171.43 4.74873 -559.281
-88.0162 6.75313 -635.957
-89.3695 6.75313 -635.957
-90.7229 6.75313 -635.957
-91.3397 6.69911 -630.869
-92.6822 6.69911 -630.869
-93.8746 6.68841 -629.861
-96.1364 6.75313 -635.957
-97.4898 6.75313 -635.957
-99.6467 6.80804 -641.127
-101.011 6.80804 -641.127
-103.934 6.64594 -625.862
-104.118 6.49138 -611.307
-105.419 6.49138 -611.307
-105.899 6.44145 -606.605
-108.109 6.34385 -597.414
-111.505 6.24917 -588.497
-111.922 6.20288 -584.138
-113.165 6.20288 -584.138
-113.567 6.15727 -579.843
-115.188 6.11232 -575.611
-118.36 6.02438 -567.328
-119.567 6.02438 -567.328
-119.912 5.98135 -563.276
-121.11 5.98135 -563.276
-122.309 5.98135 -563.276
-122.343 5.92492 -557.962
-123.53 5.92492 -557.962
-124.132 5.8971 -555.343
-124.728 5.86954 -552.747
-126.784 5.85586 -551.459
-134.295 5.77509 -543.853
-137.767 5.77509 -543.853
-140.867 5.85586 -551.459
-142.041 5.85586 -551.459
-142.22 5.8152 -547.63
-142.396 5.77509 -543.853
-143.554 5.77509 -543.853
-143.72 5.73554 -540.128
-146.474 5.79909 -546.113
-148.524 5.7884 -545.106
-152.495 5.8971 -555.343
-153.677 5.8971 -555.343
-154.859 5.8971 -555.343
-154.95 5.85586 -551.459
-156.123 5.85586 -551.459
-156.204 5.8152 -547.63
-156.285 5.77509 -543.853
-157.442 5.77509 -543.853
-159.701 5.8152 -547.63
-160.866 5.8152 -547.63
-163.165 5.85586 -551.459
-165.495 5.8971 -555.343
-170.257 5.98135 -563.276
-171.43 5.93892 -559.281
-173.853 5.98135 -563.276
-176.311 6.02438 -567.328
-89.3695 8.1065 -635.957
-90.7229 8.1065 -635.957
-91.3397 8.04165 -630.869
-92.6822 8.04165 -630.869
-94.0248 8.04165 -630.869
-95.3673 8.04165 -630.869
-96.7098 8.04165 -630.869
-98.8431 8.1065 -635.957
-100.197 8.1065 -635.957
-101.55 8.1065 -635.957
-100.216 7.7923 -611.307
-102.31 7.85317 -616.083
-104.118 7.7923 -611.307
-105.419 7.7923 -611.307
-105.899 7.73236 -606.605
-106.837 7.6152 -597.414
-108.109 7.6152 -597.414
-111.505 7.50154 -588.497
-111.921 7.2841 -571.439
-116.413 7.33727 -575.611
-117.638 7.33727 -575.611
-118.001 7.2841 -571.439
-118.36 7.2317 -567.328
-119.567 7.2317 -567.328
-119.912 7.18004 -563.276
-120.251 7.12912 -559.281
-121.442 7.12912 -559.281
-122.632 7.12912 -559.281
-123.822 7.12912 -559.281
-124.132 7.07892 -555.343
-124.437 7.02941 -551.459
-125.611 7.02941 -551.459
-126.784 7.02941 -551.459
-127.958 7.02941 -551.459
-129.132 7.02941 -551.459
-130.305 7.02941 -551.459
-131.479 7.02941 -551.459
-131.731 6.9806 -547.63
-134.295 6.93246 -543.853
-136.393 6.9806 -547.63
-137.558 6.9806 -547.63
-136.823 6.88497 -540.128
-140.867 7.02941 -551.459
-142.041 7.02941 -551.459
-142.22 6.9806 -547.63
-142.396 6.93246 -543.853
-143.554 6.93246 -543.853
-143.72 6.88497 -540.128
-145.868 6.93246 -543.853
-148.867 6.96448 -546.365
-150.377 6.9806 -547.63
-152.603 7.02941 -551.459
-154.859 7.07892 -555.343
-154.95 7.02941 -551.459
-156.123 7.02941 -551.459
-156.204 6.9806 -547.63
-159.701 6.9806 -547.63
-160.866 6.9806 -547.63
-163.165 7.02941 -551.459
-165.495 7.07892 -555.343
-166.677 7.07892 -555.343
-169.049 7.12912 -559.281
-170.24 7.12912 -559.281
-170.223 7.07892 -555.343
-172.62 7.12912 -559.281
-175.052 7.18004 -563.276
-89.3695 9.45987 -635.957
-90.7229 9.45987 -635.957
-94.0248 9.38419 -630.869
-95.3673 9.38419 -630.869
-96.7098 9.38419 -630.869
-97.2742 9.30972 -625.862
-104.118 9.09321 -611.307
-105.419 9.09321 -611.307
-105.899 9.02326 -606.605
-106.837 8.88655 -597.414
-111.505 8.75391 -588.497
-111.921 8.50017 -571.439
-118.36 8.43902 -567.328
-119.567 8.43902 -567.328
-119.912 8.37874 -563.276
-120.536 8.33903 -560.607
-121.729 8.33903 -560.607
-122.632 8.31932 -559.281
-123.822 8.31932 -559.281
-124.132 8.26073 -555.343
-124.437 8.20297 -551.459
-125.611 8.20297 -551.459
-125.904 8.146 -547.63
-127.958 8.20297 -551.459
-129.132 8.20297 -551.459
-129.4 8.146 -547.63
-130.566 8.146 -547.63
-131.731 8.146 -547.63
-131.98 8.08982 -543.853
-133.137 8.08982 -543.853
-134.295 8.08982 -543.853
-136.393 8.146 -547.63
-136.609 8.08982 -543.853
-137.767 8.08982 -543.853
-138.924 8.08982 -543.853
-141.054 8.146 -547.63
-142.22 8.146 -547.63
-143.72 8.03441 -540.128
-145.868 8.08982 -543.853
-147.705 8.12719 -546.365
-148.867 8.12719 -546.365
-150.377 8.146 -547.63
-152.603 8.20297 -551.459
-154.859 8.26073 -555.343
-154.95 8.20297 -551.459
-156.123 8.20297 -551.459
-156.204 8.146 -547.63
-157.37 8.146 -547.63
-158.535 8.146 -547.63
-159.701 8.146 -547.63
-160.866 8.146 -547.63
-163.165 8.20297 -551.459
-166.677 8.26073 -555.343
-169.049 8.31932 -559.281
-170.24 8.31932 -559.281
-172.62 8.31932 -559.281
-175.052 8.37874 -563.276
-89.3695 10.8132 -635.957
-90.7229 10.8132 -635.957
-94.0248 10.7267 -630.869
-95.3673 10.7267 -630.869
-96.7098 10.7267 -630.869
-99.4448 10.3142 -606.605
-100.736 10.3142 -606.605
-102.027 10.3142 -606.605
-103.317 10.3142 -606.605
-110.679 9.93216 -584.138
-111.921 9.71625 -571.439
-112.323 9.64635 -567.328
-113.53 9.64635 -567.328
-113.918 9.57744 -563.276
-118.36 9.64635 -567.328
-119.567 9.64635 -567.328
-120.536 9.53205 -560.607
-127.677 9.44255 -555.343
-127.958 9.37652 -551.459
-129.132 9.37652 -551.459
-129.4 9.3114 -547.63
-130.566 9.3114 -547.63
-131.731 9.3114 -547.63
-131.98 9.24719 -543.853
-133.137 9.24719 -543.853
-134.295 9.24719 -543.853
-136.393 9.3114 -547.63
-141.054 9.3114 -547.63
-142.22 9.3114 -547.63
-142.396 9.24719 -543.853
-143.554 9.24719 -543.853
-143.72 9.18385 -540.128
-145.868 9.24719 -543.853
-147.026 9.24719 -543.853
-148.183 9.24719 -543.853
-149.34 9.24719 -543.853
-152.603 9.37652 -551.459
-154.859 9.44255 -555.343
-154.95 9.37652 -551.459
-156.123 9.37652 -551.459
-156.204 9.3114 -547.63
-157.735 9.33301 -548.9
-158.903 9.33301 -548.9
-159.701 9.3114 -547.63
-160.866 9.3114 -547.63
-163.165 9.37652 -551.459
-169.049 9.50952 -559.281
-170.24 9.50952 -559.281
-170.223 9.44255 -555.343
-172.62 9.50952 -559.281
-177.449 9.57744 -563.276
-89.3695 12.1666 -635.957
-94.0248 12.0693 -630.869
-99.4448 11.6051 -606.605
-99.9667 11.5165 -601.974
-101.248 11.5165 -601.974
-101.752 11.4292 -597.414
-103.81 11.5165 -601.974
-105.899 11.6051 -606.605
-104.206 11.1477 -582.699
-108.631 11.0931 -579.843
-119.281 10.8277 -565.971
-119.912 10.7761 -563.276
-120.251 10.6997 -559.281
-121.442 10.6997 -559.281
-121.768 10.6244 -555.343
-122.95 10.6244 -555.343
-124.132 10.6244 -555.343
-124.728 10.5747 -552.747
-125.904 10.5747 -552.747
-126.784 10.5501 -551.459
-127.958 10.5501 -551.459
-129.132 10.5501 -551.459
-129.4 10.4768 -547.63
-130.566 10.4768 -547.63
-131.731 10.4768 -547.63
-131.98 10.4046 -543.853
-133.137 10.4046 -543.853
-134.295 10.4046 -543.853
-136.393 10.4768 -547.63
-136.609 10.4046 -543.853
-137.767 10.4046 -543.853
-137.973 10.3333 -540.128
-141.054 10.4768 -547.63
-142.22 10.4768 -547.63
-143.385 10.4768 -547.63
-143.72 10.3333 -540.128
-145.868 10.4046 -543.853
-147.026 10.4046 -543.853
-148.183 10.4046 -543.853
-148.317 10.3333 -540.128
-151.543 10.4768 -547.63
-154.859 10.6244 -555.343
-156.041 10.6244 -555.343
-156.204 10.4768 -547.63
-157.735 10.5011 -548.9
-159.701 10.4768 -547.63
-160.866 10.4768 -547.63
-163.165 10.5501 -551.459
-164.362 10.4768 -547.63
-167.859 10.6244 -555.343
-169.041 10.6244 -555.343
-170.223 10.6244 -555.343
-171.404 10.6244 -555.343
-175.052 10.7761 -563.276
-177.449 10.7761 -563.276
-94.0248 13.4118 -630.869
-97.0654 13.0975 -616.083
-98.3764 13.0975 -616.083
-99.4448 12.896 -606.605
-99.9667 12.7975 -601.974
-101.248 12.7975 -601.974
-101.486 12.511 -588.497
-104.206 12.3878 -582.699
-105.132 12.2074 -574.214
-106.613 12.2371 -575.611
-108.631 12.327 -579.843
-109.865 12.327 -579.843
-110.288 12.2371 -575.611
-111.513 12.2371 -575.611
-111.921 12.1484 -571.439
-112.323 12.061 -567.328
-113.53 12.061 -567.328
-113.918 11.9748 -563.276
-117.152 12.061 -567.328
-118.077 12.0321 -565.971
-119.281 12.0321 -565.971
-119.912 11.9748 -563.276
-120.251 11.8899 -559.281
-121.442 11.8899 -559.281
-121.768 11.8062 -555.343
-122.95 11.8062 -555.343
-124.132 11.8062 -555.343
-124.728 11.751 -552.747
-126.784 11.7236 -551.459
-127.958 11.7236 -551.459
-129.132 11.7236 -551.459
-129.4 11.6422 -547.63
-130.566 11.6422 -547.63
-131.731 11.6422 -547.63
-131.98 11.5619 -543.853
-133.137 11.5619 -543.853
-134.295 11.5619 -543.853
-136.393 11.6422 -547.63
-136.609 11.5619 -543.853
-137.767 11.5619 -543.853
-137.973 11.4827 -540.128
-141.054 11.6422 -547.63
-142.22 11.6422 -547.63
-143.385 11.6422 -547.63
-143.72 11.4827 -540.128
-145.868 11.5619 -543.853
-147.026 11.5619 -543.853
-148.183 11.5619 -543.853
-148.317 11.4827 -540.128
-150.498 11.5619 -543.853
-151.655 11.5619 -543.853
-156.041 11.8062 -555.343
-156.204 11.6422 -547.63
-158.47 11.7236 -551.459
-159.701 11.6422 -547.63
-160.866 11.6422 -547.63
-163.165 11.7236 -551.459
-164.362 11.6422 -547.63
-167.859 11.8062 -555.343
-169.041 11.8062 -555.343
-170.223 11.8062 -555.343
-176.191 11.8899 -559.281
-178.648 11.9748 -563.276
-94.0248 14.7544 -630.869
-98.3764 14.4086 -616.083
-99.4448 14.1869 -606.605
-99.9667 14.0786 -601.974
-101.248 14.0786 -601.974
-100.734 13.6614 -584.138
-101.977 13.6614 -584.138
-103.22 13.6614 -584.138
-103.695 13.561 -579.843
-103.91 13.4293 -574.214
-105.132 13.4293 -574.214
-106.613 13.462 -575.611
-108.631 13.561 -579.843
-109.865 13.561 -579.843
-110.288 13.462 -575.611
-111.513 13.462 -575.611
-111.921 13.3645 -571.439
-112.323 13.2683 -567.328
-113.53 13.2683 -567.328
-113.918 13.1735 -563.276
-118.644 13.3002 -568.692
-119.854 13.3002 -568.692
-119.912 13.1735 -563.276
-120.251 13.0801 -559.281
-121.442 13.0801 -559.281
-121.768 12.988 -555.343
-122.95 12.988 -555.343
-124.132 12.988 -555.343
-124.437 12.8972 -551.459
-125.611 12.8972 -551.459
-126.784 12.8972 -551.459
-127.958 12.8972 -551.459
-129.132 12.8972 -551.459
-129.4 12.8076 -547.63
-130.566 12.8076 -547.63
-131.731 12.8076 -547.63
-132.896 12.8076 -547.63
-134.604 12.7486 -545.106
-136.393 12.8076 -547.63
-143.385 12.8076 -547.63
-143.72 12.6322 -540.128
-145.868 12.7193 -543.853
-147.026 12.7193 -543.853
-148.183 12.7193 -543.853
-148.317 12.6322 -540.128
-149.467 12.6322 -540.128
-150.616 12.6322 -540.128
-156.041 12.988 -555.343
-156.123 12.8972 -551.459
-157.297 12.8972 -551.459
-158.47 12.8972 -551.459
-159.701 12.8076 -547.63
-160.866 12.8076 -547.63
-163.165 12.8972 -551.459
-164.338 12.8972 -551.459
-165.512 12.8972 -551.459
-165.528 12.8076 -547.63
-171.404 12.988 -555.343
-175.052 13.1735 -563.276
-176.191 13.0801 -559.281
-178.648 13.1735 -563.276
-181.14 13.2683 -567.328
-93.2785 15.9692 -625.862
-97.0654 15.7196 -616.083
-98.3764 15.7196 -616.083
-98.4634 15.1287 -592.922
-99.7252 15.1287 -592.922
-99.4909 14.9045 -584.138
-104.417 14.7228 -577.014
-105.645 14.7228 -577.014
-105.841 14.5805 -571.439
-107.838 14.687 -575.611
-109.865 14.795 -579.843
-110.288 14.687 -575.611
-111.513 14.687 -575.611
-111.921 14.5805 -571.439
-112.323 14.4756 -567.328
-113.53 14.4756 -567.328
-113.918 14.3722 -563.276
-115.117 14.3722 -563.276
-117.152 14.4756 -567.328
-118.644 14.5104 -568.692
-119.912 14.3722 -563.276
-120.251 14.2703 -559.281
-121.442 14.2703 -559.281
-121.768 14.1698 -555.343
-122.95 14.1698 -555.343
-124.132 14.1698 -555.343
-124.437 14.0707 -551.459
-125.611 14.0707 -551.459
-126.784 14.0707 -551.459
-127.958 14.0707 -551.459
-129.132 14.0707 -551.459
-129.4 13.973 -547.63
-130.566 13.973 -547.63
-132.896 13.973 -547.63
-134.604 13.9086 -545.106
-136.393 13.973 -547.63
-136.609 13.8766 -543.853
-137.767 13.8766 -543.853
-137.973 13.7816 -540.128
-139.122 13.7816 -540.128
-140.271 13.7816 -540.128
-143.385 13.973 -547.63
-143.554 13.8766 -543.853
-144.711 13.8766 -543.853
-145.868 13.8766 -543.853
-147.026 13.8766 -543.853
-148.183 13.8766 -543.853
-148.317 13.7816 -540.128
-149.126 13.7502 -538.897
-150.273 13.7502 -538.897
-151.766 13.7816 -540.128
-156.123 14.0707 -551.459
-157.297 14.0707 -551.459
-159.701 13.973 -547.63
-160.866 13.973 -547.63
-163.165 14.0707 -551.459
-164.338 14.0707 -551.459
-165.512 14.0707 -551.459
-165.528 13.973 -547.63
-167.859 14.0707 -551.459
-170.223 14.1698 -555.343
-172.62 14.2703 -559.281
-175.052 14.3722 -563.276
-178.648 14.3722 -563.276
-181.14 14.4756 -567.328
-92.0763 17.5801 -635.957
-93.2785 17.301 -625.862
-93.8655 17.1648 -620.934
-95.1869 17.1648 -620.934
-95.7543 17.0307 -616.083
-100.233 16.2681 -588.497
-104.417 15.9507 -577.014
-105.841 15.7966 -571.439
-106.286 15.683 -567.328
-107.494 15.683 -567.328
-110.557 15.9507 -577.014
-111.785 15.9507 -577.014
-111.921 15.7966 -571.439
-112.323 15.683 -567.328
-113.53 15.683 -567.328
-115.117 15.5709 -563.276
-118.36 15.683 -567.328
-119.567 15.683 -567.328
-119.912 15.5709 -563.276
-120.251 15.4605 -559.281
-121.442 15.4605 -559.281
-121.768 15.3516 -555.343
-122.09 15.2443 -551.459
-123.264 15.2443 -551.459
-127.677 15.3516 -555.343
-127.958 15.2443 -551.459
-129.132 15.2443 -551.459
-129.4 15.1384 -547.63
-130.566 15.1384 -547.63
-132.896 15.1384 -547.63
-133.987 14.9995 -542.605
-136.393 15.1384 -547.63
-137.558 15.1384 -547.63
-137.451 14.9995 -542.605
-137.973 14.931 -540.128
-139.122 14.931 -540.128
-140.271 14.931 -540.128
-141.421 14.931 -540.128
-143.554 15.034 -543.853
-144.711 15.034 -543.853
-145.868 15.034 -543.853
-147.364 15.0686 -545.106
-150.273 14.897 -538.897
-151.766 14.931 -540.128
-156.123 15.2443 -551.459
-157.297 15.2443 -551.459
-158.47 15.2443 -551.459
-159.644 15.2443 -551.459
-160.817 15.2443 -551.459
-160.866 15.1384 -547.63
-163.165 15.2443 -551.459
-164.338 15.2443 -551.459
-165.512 15.2443 -551.459
-165.528 15.1384 -547.63
-169.041 15.3516 -555.343
-172.62 15.4605 -559.281
-175.052 15.5709 -563.276
-176.191 15.4605 -559.281
-178.648 15.5709 -563.276
-181.14 15.683 -567.328
-92.0763 18.9335 -635.957
-93.2785 18.6329 -625.862
-94.4432 18.3418 -616.083
-95.7543 18.3418 -616.083
-104.163 17.1369 -575.611
-105.388 17.1369 -575.611
-105.841 17.0127 -571.439
-106.286 16.8903 -567.328
-107.494 16.8903 -567.328
-110.557 17.1787 -577.014
-113.918 16.7696 -563.276
-119.217 17.0127 -571.439
-119.912 16.7696 -563.276
-120.251 16.6507 -559.281
-121.442 16.6507 -559.281
-121.768 16.5334 -555.343
-122.09 16.4178 -551.459
-123.264 16.4178 -551.459
-126.784 16.4178 -551.459
-127.958 16.4178 -551.459
-129.132 16.4178 -551.459
-129.4 16.3038 -547.63
-130.566 16.3038 -547.63
-130.823 16.1914 -543.853
-131.98 16.1914 -543.853
-134.062 16.3038 -547.63
-135.227 16.3038 -547.63
-136.393 16.3038 -547.63
-136.296 16.1542 -542.605
-137.451 16.1542 -542.605
-137.973 16.0805 -540.128
-139.122 16.0805 -540.128
-140.271 16.0805 -540.128
-141.421 16.0805 -540.128
-143.554 16.1914 -543.853
-144.711 16.1914 -543.853
-145.868 16.1914 -543.853
-147.364 16.2287 -545.106
-148.524 16.2287 -545.106
-148.317 16.0805 -540.128
-149.467 16.0805 -540.128
-150.616 16.0805 -540.128
-151.766 16.0805 -540.128
-153.97 16.1914 -543.853
-156.204 16.3038 -547.63
-158.47 16.4178 -551.459
-159.644 16.4178 -551.459
-160.817 16.4178 -551.459
-160.866 16.3038 -547.63
-164.338 16.4178 -551.459
-165.512 16.4178 -551.459
-165.528 16.3038 -547.63
-169.041 16.5334 -555.343
-170.223 16.5334 -555.343
-172.62 16.6507 -559.281
-175.052 16.7696 -563.276
-176.191 16.6507 -559.281
-178.648 16.7696 -563.276
-181.14 16.8903 -567.328
-92.0763 20.2868 -635.957
-93.2785 19.9648 -625.862
-97.938 19.0573 -597.414
-98.4634 18.914 -592.922
-99.7252 18.914 -592.922
-103.695 18.4968 -579.843
-104.163 18.3618 -575.611
-105.388 18.3618 -575.611
-105.841 18.2287 -571.439
-106.286 18.0976 -567.328
-107.494 18.0976 -567.328
-107.925 17.9683 -563.276
-109.123 17.9683 -563.276
-112.323 18.0976 -567.328
-113.53 18.0976 -567.328
-114.738 18.0976 -567.328
-119.217 18.2287 -571.439
-119.912 17.9683 -563.276
-120.251 17.8409 -559.281
-121.442 17.8409 -559.281
-121.768 17.7153 -555.343
-122.09 17.5914 -551.459
-123.264 17.5914 -551.459
-123.573 17.4692 -547.63
-126.784 17.5914 -551.459
-127.958 17.5914 -551.459
-129.132 17.5914 -551.459
-129.4 17.4692 -547.63
-130.566 17.4692 -547.63
-130.823 17.3487 -543.853
-131.98 17.3487 -543.853
-134.062 17.4692 -547.63
-135.227 17.4692 -547.63
-136.393 17.4692 -547.63
-136.609 17.3487 -543.853
-137.767 17.3487 -543.853
-137.973 17.2299 -540.128
-139.122 17.2299 -540.128
-140.271 17.2299 -540.128
-141.421 17.2299 -540.128
-142.57 17.2299 -540.128
-143.72 17.2299 -540.128
-145.868 17.3487 -543.853
-147.026 17.3487 -543.853
-148.183 17.3487 -543.853
-148.317 17.2299 -540.128
-149.467 17.2299 -540.128
-150.616 17.2299 -540.128
-151.766 17.2299 -540.128
-152.915 17.2299 -540.128
-154.771 17.3089 -542.605
-157.808 17.5179 -549.155
-160.768 17.7153 -555.343
-160.866 17.4692 -547.63
-163.165 17.5914 -551.459
-164.338 17.5914 -551.459
-165.512 17.5914 -551.459
-166.685 17.5914 -551.459
-169.041 17.7153 -555.343
-170.223 17.7153 -555.343
-172.62 17.8409 -559.281
-175.052 17.9683 -563.276
-176.251 17.9683 -563.276
-177.449 17.9683 -563.276
-178.648 17.9683 -563.276
-182.348 18.0976 -567.328
-183.555 18.0976 -567.328
-92.0763 21.6402 -635.957
-93.2785 21.2967 -625.862
-97.938 20.3287 -597.414
-101.227 19.7308 -579.843
-102.461 19.7308 -579.843
-103.695 19.7308 -579.843
-104.163 19.5868 -575.611
-105.388 19.5868 -575.611
-107.925 19.167 -563.276
-109.123 19.167 -563.276
-110.322 19.167 -563.276
-110.73 19.0311 -559.281
-111.92 19.0311 -559.281
-113.918 19.167 -563.276
-116.224 19.3513 -568.692
-117.434 19.3513 -568.692
-117.514 19.167 -563.276
-118.713 19.167 -563.276
-119.912 19.167 -563.276
-120.251 19.0311 -559.281
-121.442 19.0311 -559.281
-121.768 18.8971 -555.343
-122.95 18.8971 -555.343
-124.437 18.7649 -551.459
-126.784 18.7649 -551.459
-128.859 18.8971 -555.343
-129.4 18.6346 -547.63
-130.566 18.6346 -547.63
-130.823 18.5061 -543.853
-131.98 18.5061 -543.853
-135.227 18.6346 -547.63
-136.393 18.6346 -547.63
-136.924 18.5487 -545.106
-138.084 18.5487 -545.106
-137.973 18.3793 -540.128
-140.081 18.5061 -543.853
-141.421 18.3793 -540.128
-142.57 18.3793 -540.128
-143.72 18.3793 -540.128
-145.868 18.5061 -543.853
-147.026 18.5061 -543.853
-148.183 18.5061 -543.853
-148.317 18.3793 -540.128
-151.766 18.3793 -540.128
-152.915 18.3793 -540.128
-154.065 18.3793 -540.128
-159.586 18.8971 -555.343
-160.768 18.8971 -555.343
-161.95 18.8971 -555.343
-163.132 18.8971 -555.343
-164.314 18.8971 -555.343
-165.495 18.8971 -555.343
-166.685 18.7649 -551.459
-169.041 18.8971 -555.343
-169.427 18.8088 -552.747
-176.251 19.167 -563.276
-177.449 19.167 -563.276
-178.648 19.167 -563.276
-181.14 19.3049 -567.328
-182.348 19.3049 -567.328
-183.555 19.3049 -567.328
-184.762 19.3049 -567.328
-93.2785 22.6286 -625.862
-96.6667 21.6 -597.414
-97.938 21.6 -597.414
-101.227 20.9647 -579.843
-102.461 20.9647 -579.843
-103.695 20.9647 -579.843
-104.163 20.8117 -575.611
-105.388 20.8117 -575.611
-105.841 20.6609 -571.439
-106.286 20.5122 -567.328
-107.494 20.5122 -567.328
-107.925 20.3657 -563.276
-109.123 20.3657 -563.276
-110.322 20.3657 -563.276
-110.73 20.2213 -559.281
-111.92 20.2213 -559.281
-113.918 20.3657 -563.276
-116.224 20.5616 -568.692
-118.713 20.3657 -563.276
-119.912 20.3657 -563.276
-120.536 20.2692 -560.607
-121.729 20.2692 -560.607
-121.768 20.0789 -555.343
-122.95 20.0789 -555.343
-127.677 20.0789 -555.343
-136.393 19.8 -547.63
-136.924 19.7088 -545.106
-137.973 19.5288 -540.128
-140.081 19.6635 -543.853
-141.421 19.5288 -540.128
-142.57 19.5288 -540.128
-143.72 19.5288 -540.128
-145.868 19.6635 -543.853
-147.026 19.6635 -543.853
-148.183 19.6635 -543.853
-148.317 19.5288 -540.128
-150.498 19.6635 -543.853
-151.766 19.5288 -540.128
-152.915 19.5288 -540.128
-154.065 19.5288 -540.128
-155.214 19.5288 -540.128
-160.768 20.0789 -555.343
-161.95 20.0789 -555.343
-163.132 20.0789 -555.343
-164.314 20.0789 -555.343
-166.685 19.9385 -551.459
-169.041 20.0789 -555.343
-169.427 19.9851 -552.747
-170.604 19.9851 -552.747
-175.052 20.3657 -563.276
-176.251 20.3657 -563.276
-177.449 20.3657 -563.276
-178.648 20.3657 -563.276
-181.14 20.5122 -567.328
-182.348 20.5122 -567.328
-183.555 20.5122 -567.328
-184.762 20.5122 -567.328
-93.5614 23.046 -601.974
-94.8425 23.046 -601.974
-95.3953 22.8714 -597.414
-96.6667 22.8714 -597.414
-103.695 22.1987 -579.843
-104.163 22.0366 -575.611
-105.388 22.0366 -575.611
-105.841 21.877 -571.439
-107.057 21.877 -571.439
-107.925 21.5644 -563.276
-109.123 21.5644 -563.276
-110.322 21.5644 -563.276
-113.918 21.5644 -563.276
-115.945 21.7196 -567.328
-117.152 21.7196 -567.328
-117.514 21.5644 -563.276
-118.713 21.5644 -563.276
-119.912 21.5644 -563.276
-120.536 21.4622 -560.607
-127.677 21.2607 -555.343
-128.859 21.2607 -555.343
-129.132 21.112 -551.459
-130.305 21.112 -551.459
-130.566 20.9654 -547.63
-130.823 20.8208 -543.853
-131.98 20.8208 -543.853
-134.062 20.9654 -547.63
-135.227 20.9654 -547.63
-136.393 20.9654 -547.63
-137.558 20.9654 -547.63
-140.081 20.8208 -543.853
-141.239 20.8208 -543.853
-142.396 20.8208 -543.853
-142.57 20.6782 -540.128
-143.72 20.6782 -540.128
-145.868 20.8208 -543.853
-147.026 20.8208 -543.853
